ply
format ascii 1.0
element vertex 827
property double x
property double y
property double z
end_header
291.000000000000000 81.000000000000000 33.900566101074219
292.000000000000000 81.000000000000000 33.982707977294922
293.000000000000000 81.000000000000000 32.692993164062500
294.000000000000000 81.000000000000000 33.090515136718750
295.000000000000000 81.000000000000000 31.557323455810547
296.000000000000000 81.000000000000000 32.043876647949219
297.000000000000000 81.000000000000000 31.288980484008789
298.000000000000000 81.000000000000000 30.803539276123047
299.000000000000000 81.000000000000000 28.589244842529297
300.000000000000000 81.000000000000000 28.079833984375000
301.000000000000000 81.000000000000000 26.731582641601562
302.000000000000000 81.000000000000000 23.720270156860352
303.000000000000000 81.000000000000000 21.910346984863281
304.000000000000000 81.000000000000000 14.030646324157715
305.000000000000000 81.000000000000000 13.951943397521973
306.000000000000000 81.000000000000000 13.663397789001465
307.000000000000000 81.000000000000000 12.324656486511230
308.000000000000000 81.000000000000000 12.245417594909668
309.000000000000000 81.000000000000000 11.586186408996582
310.000000000000000 81.000000000000000 10.862511634826660
311.000000000000000 81.000000000000000 9.429880142211914
312.000000000000000 81.000000000000000 8.247439384460449
313.000000000000000 81.000000000000000 7.629855155944824
314.000000000000000 81.000000000000000 7.131374359130859
315.000000000000000 81.000000000000000 5.494499683380127
316.000000000000000 81.000000000000000 4.807867527008057
317.000000000000000 81.000000000000000 3.420203447341919
318.000000000000000 81.000000000000000 3.072942733764648
319.000000000000000 81.000000000000000 1.904667139053345
320.000000000000000 81.000000000000000 0.290170878171921
224.000000000000000 82.000000000000000 47.751747131347656
225.000000000000000 82.000000000000000 48.382640838623047
226.000000000000000 82.000000000000000 49.397850036621094
227.000000000000000 82.000000000000000 49.626960754394531
228.000000000000000 82.000000000000000 50.404315948486328
229.000000000000000 82.000000000000000 50.639858245849609
230.000000000000000 82.000000000000000 50.995372772216797
231.000000000000000 82.000000000000000 50.928359985351562
232.000000000000000 82.000000000000000 51.147922515869141
233.000000000000000 82.000000000000000 50.944961547851562
234.000000000000000 82.000000000000000 51.047180175781250
235.000000000000000 82.000000000000000 51.238082885742188
236.000000000000000 82.000000000000000 51.487388610839844
237.000000000000000 82.000000000000000 52.289817810058594
238.000000000000000 82.000000000000000 52.567272186279297
239.000000000000000 82.000000000000000 52.957176208496094
240.000000000000000 82.000000000000000 52.810817718505859
241.000000000000000 82.000000000000000 53.012874603271484
242.000000000000000 82.000000000000000 52.780918121337891
243.000000000000000 82.000000000000000 52.975593566894531
244.000000000000000 82.000000000000000 52.965888977050781
245.000000000000000 82.000000000000000 53.143547058105469
246.000000000000000 82.000000000000000 53.225681304931641
247.000000000000000 82.000000000000000 53.341690063476562
248.000000000000000 82.000000000000000 53.436546325683594
249.000000000000000 82.000000000000000 53.640018463134766
250.000000000000000 82.000000000000000 53.512672424316406
251.000000000000000 82.000000000000000 53.776618957519531
252.000000000000000 82.000000000000000 53.655883789062500
253.000000000000000 82.000000000000000 53.635559082031250
254.000000000000000 82.000000000000000 53.399173736572266
255.000000000000000 82.000000000000000 53.555271148681641
256.000000000000000 82.000000000000000 53.462947845458984
257.000000000000000 82.000000000000000 53.492698669433594
258.000000000000000 82.000000000000000 52.744213104248047
259.000000000000000 82.000000000000000 53.184532165527344
260.000000000000000 82.000000000000000 53.224563598632812
261.000000000000000 82.000000000000000 53.243824005126953
262.000000000000000 82.000000000000000 52.491039276123047
263.000000000000000 82.000000000000000 52.637950897216797
264.000000000000000 82.000000000000000 52.667297363281250
265.000000000000000 82.000000000000000 52.807376861572266
266.000000000000000 82.000000000000000 51.959278106689453
267.000000000000000 82.000000000000000 51.770996093750000
268.000000000000000 82.000000000000000 52.057743072509766
269.000000000000000 82.000000000000000 52.261051177978516
270.000000000000000 82.000000000000000 51.292621612548828
271.000000000000000 82.000000000000000 50.369400024414062
272.000000000000000 82.000000000000000 50.743751525878906
273.000000000000000 82.000000000000000 50.901588439941406
274.000000000000000 82.000000000000000 50.864604949951172
275.000000000000000 82.000000000000000 49.923553466796875
276.000000000000000 82.000000000000000 49.829463958740234
277.000000000000000 82.000000000000000 49.136264801025391
278.000000000000000 82.000000000000000 49.657077789306641
279.000000000000000 82.000000000000000 47.897556304931641
280.000000000000000 82.000000000000000 47.467250823974609
281.000000000000000 82.000000000000000 44.990230560302734
282.000000000000000 82.000000000000000 44.808967590332031
283.000000000000000 82.000000000000000 42.378658294677734
284.000000000000000 82.000000000000000 40.289489746093750
285.000000000000000 82.000000000000000 38.397300720214844
286.000000000000000 82.000000000000000 37.209686279296875
287.000000000000000 82.000000000000000 36.779510498046875
288.000000000000000 82.000000000000000 34.410915374755859
289.000000000000000 82.000000000000000 33.791534423828125
290.000000000000000 82.000000000000000 33.279006958007812
291.000000000000000 82.000000000000000 33.376483917236328
292.000000000000000 82.000000000000000 33.058776855468750
293.000000000000000 82.000000000000000 32.890384674072266
294.000000000000000 82.000000000000000 31.327007293701172
295.000000000000000 82.000000000000000 30.616031646728516
296.000000000000000 82.000000000000000 30.489620208740234
297.000000000000000 82.000000000000000 31.007976531982422
298.000000000000000 82.000000000000000 30.086973190307617
299.000000000000000 82.000000000000000 29.357635498046875
300.000000000000000 82.000000000000000 27.393255233764648
301.000000000000000 82.000000000000000 26.558706283569336
302.000000000000000 82.000000000000000 23.852027893066406
303.000000000000000 82.000000000000000 22.644535064697266
304.000000000000000 82.000000000000000 13.332761764526367
305.000000000000000 82.000000000000000 13.116401672363281
306.000000000000000 82.000000000000000 12.245244979858398
307.000000000000000 82.000000000000000 12.418375968933105
308.000000000000000 82.000000000000000 11.035529136657715
309.000000000000000 82.000000000000000 10.943799972534180
310.000000000000000 82.000000000000000 9.978462219238281
311.000000000000000 82.000000000000000 9.616660118103027
312.000000000000000 82.000000000000000 8.028256416320801
313.000000000000000 82.000000000000000 7.188857078552246
314.000000000000000 82.000000000000000 6.683616638183594
315.000000000000000 82.000000000000000 5.955162048339844
316.000000000000000 82.000000000000000 4.636449337005615
317.000000000000000 82.000000000000000 3.392218589782715
318.000000000000000 82.000000000000000 2.732304096221924
319.000000000000000 82.000000000000000 2.149989843368530
225.000000000000000 83.000000000000000 48.087051391601562
226.000000000000000 83.000000000000000 48.763393402099609
227.000000000000000 83.000000000000000 48.841358184814453
228.000000000000000 83.000000000000000 49.692749023437500
229.000000000000000 83.000000000000000 50.263343811035156
230.000000000000000 83.000000000000000 50.565887451171875
231.000000000000000 83.000000000000000 50.610187530517578
232.000000000000000 83.000000000000000 50.612918853759766
233.000000000000000 83.000000000000000 50.892597198486328
234.000000000000000 83.000000000000000 50.458419799804688
235.000000000000000 83.000000000000000 51.582294464111328
236.000000000000000 83.000000000000000 51.568832397460938
237.000000000000000 83.000000000000000 52.635383605957031
238.000000000000000 83.000000000000000 52.703315734863281
239.000000000000000 83.000000000000000 53.075469970703125
240.000000000000000 83.000000000000000 53.029304504394531
241.000000000000000 83.000000000000000 53.142410278320312
242.000000000000000 83.000000000000000 52.825630187988281
243.000000000000000 83.000000000000000 53.139301300048828
244.000000000000000 83.000000000000000 53.098236083984375
245.000000000000000 83.000000000000000 53.163520812988281
246.000000000000000 83.000000000000000 53.208721160888672
247.000000000000000 83.000000000000000 53.282894134521484
248.000000000000000 83.000000000000000 53.489826202392578
249.000000000000000 83.000000000000000 53.326107025146484
250.000000000000000 83.000000000000000 53.394287109375000
251.000000000000000 83.000000000000000 53.555431365966797
252.000000000000000 83.000000000000000 53.731342315673828
253.000000000000000 83.000000000000000 53.512233734130859
254.000000000000000 83.000000000000000 53.352306365966797
255.000000000000000 83.000000000000000 53.264965057373047
256.000000000000000 83.000000000000000 53.416393280029297
257.000000000000000 83.000000000000000 53.105941772460938
258.000000000000000 83.000000000000000 52.930717468261719
259.000000000000000 83.000000000000000 52.839847564697266
260.000000000000000 83.000000000000000 53.047550201416016
261.000000000000000 83.000000000000000 53.037498474121094
262.000000000000000 83.000000000000000 52.533699035644531
263.000000000000000 83.000000000000000 52.566234588623047
264.000000000000000 83.000000000000000 52.091838836669922
265.000000000000000 83.000000000000000 52.616348266601562
266.000000000000000 83.000000000000000 51.614032745361328
267.000000000000000 83.000000000000000 51.698047637939453
268.000000000000000 83.000000000000000 50.706241607666016
269.000000000000000 83.000000000000000 51.598152160644531
270.000000000000000 83.000000000000000 50.167930603027344
271.000000000000000 83.000000000000000 50.715366363525391
272.000000000000000 83.000000000000000 49.423355102539062
273.000000000000000 83.000000000000000 50.588874816894531
274.000000000000000 83.000000000000000 49.671726226806641
275.000000000000000 83.000000000000000 49.979156494140625
276.000000000000000 83.000000000000000 49.095855712890625
277.000000000000000 83.000000000000000 49.384464263916016
278.000000000000000 83.000000000000000 47.612342834472656
279.000000000000000 83.000000000000000 46.780345916748047
280.000000000000000 83.000000000000000 44.875968933105469
281.000000000000000 83.000000000000000 43.659091949462891
282.000000000000000 83.000000000000000 41.937534332275391
283.000000000000000 83.000000000000000 40.605396270751953
284.000000000000000 83.000000000000000 38.727993011474609
285.000000000000000 83.000000000000000 35.830940246582031
286.000000000000000 83.000000000000000 36.405067443847656
287.000000000000000 83.000000000000000 35.101821899414062
288.000000000000000 83.000000000000000 34.450862884521484
289.000000000000000 83.000000000000000 32.686794281005859
290.000000000000000 83.000000000000000 33.483661651611328
291.000000000000000 83.000000000000000 31.880022048950195
292.000000000000000 83.000000000000000 33.031532287597656
293.000000000000000 83.000000000000000 31.859016418457031
294.000000000000000 83.000000000000000 31.519990921020508
295.000000000000000 83.000000000000000 30.260471343994141
296.000000000000000 83.000000000000000 31.126554489135742
297.000000000000000 83.000000000000000 30.417436599731445
298.000000000000000 83.000000000000000 29.177633285522461
299.000000000000000 83.000000000000000 26.613756179809570
300.000000000000000 83.000000000000000 26.738862991333008
301.000000000000000 83.000000000000000 26.180130004882812
302.000000000000000 83.000000000000000 25.201011657714844
303.000000000000000 83.000000000000000 22.305767059326172
304.000000000000000 83.000000000000000 12.195851325988770
305.000000000000000 83.000000000000000 11.489140510559082
306.000000000000000 83.000000000000000 11.386743545532227
307.000000000000000 83.000000000000000 10.821702003479004
308.000000000000000 83.000000000000000 9.707450866699219
309.000000000000000 83.000000000000000 8.843136787414551
310.000000000000000 83.000000000000000 8.942763328552246
311.000000000000000 83.000000000000000 8.241889953613281
312.000000000000000 83.000000000000000 7.245310783386230
313.000000000000000 83.000000000000000 5.826431274414062
314.000000000000000 83.000000000000000 5.388236999511719
315.000000000000000 83.000000000000000 4.299223899841309
316.000000000000000 83.000000000000000 4.059667110443115
317.000000000000000 83.000000000000000 2.327288150787354
318.000000000000000 83.000000000000000 1.664252996444702
319.000000000000000 83.000000000000000 0.254362195730209
226.000000000000000 84.000000000000000 47.999023437500000
227.000000000000000 84.000000000000000 48.709556579589844
228.000000000000000 84.000000000000000 50.177658081054688
229.000000000000000 84.000000000000000 50.027076721191406
230.000000000000000 84.000000000000000 50.692310333251953
231.000000000000000 84.000000000000000 50.418006896972656
232.000000000000000 84.000000000000000 51.349594116210938
233.000000000000000 84.000000000000000 51.238239288330078
234.000000000000000 84.000000000000000 51.467399597167969
235.000000000000000 84.000000000000000 51.574092864990234
236.000000000000000 84.000000000000000 51.795913696289062
237.000000000000000 84.000000000000000 52.402324676513672
238.000000000000000 84.000000000000000 52.512222290039062
239.000000000000000 84.000000000000000 52.708457946777344
240.000000000000000 84.000000000000000 52.660606384277344
241.000000000000000 84.000000000000000 52.782459259033203
242.000000000000000 84.000000000000000 52.622474670410156
243.000000000000000 84.000000000000000 52.701408386230469
244.000000000000000 84.000000000000000 52.573551177978516
245.000000000000000 84.000000000000000 52.960369110107422
246.000000000000000 84.000000000000000 52.933113098144531
247.000000000000000 84.000000000000000 53.043285369873047
248.000000000000000 84.000000000000000 53.142047882080078
249.000000000000000 84.000000000000000 53.365772247314453
250.000000000000000 84.000000000000000 53.245800018310547
251.000000000000000 84.000000000000000 53.603034973144531
252.000000000000000 84.000000000000000 53.502819061279297
253.000000000000000 84.000000000000000 53.672153472900391
254.000000000000000 84.000000000000000 53.337406158447266
255.000000000000000 84.000000000000000 53.387462615966797
256.000000000000000 84.000000000000000 53.035224914550781
257.000000000000000 84.000000000000000 53.464736938476562
258.000000000000000 84.000000000000000 52.873508453369141
259.000000000000000 84.000000000000000 53.255912780761719
260.000000000000000 84.000000000000000 53.131778717041016
261.000000000000000 84.000000000000000 53.270061492919922
262.000000000000000 84.000000000000000 52.830806732177734
263.000000000000000 84.000000000000000 52.946830749511719
264.000000000000000 84.000000000000000 52.209758758544922
265.000000000000000 84.000000000000000 52.612949371337891
266.000000000000000 84.000000000000000 52.059017181396484
267.000000000000000 84.000000000000000 51.793041229248047
268.000000000000000 84.000000000000000 50.970943450927734
269.000000000000000 84.000000000000000 50.504577636718750
270.000000000000000 84.000000000000000 50.865978240966797
271.000000000000000 84.000000000000000 50.867595672607422
272.000000000000000 84.000000000000000 50.093257904052734
273.000000000000000 84.000000000000000 49.815853118896484
274.000000000000000 84.000000000000000 50.180385589599609
275.000000000000000 84.000000000000000 49.540126800537109
276.000000000000000 84.000000000000000 49.275199890136719
277.000000000000000 84.000000000000000 48.784210205078125
278.000000000000000 84.000000000000000 47.732620239257812
279.000000000000000 84.000000000000000 45.426753997802734
280.000000000000000 84.000000000000000 44.116558074951172
281.000000000000000 84.000000000000000 41.832084655761719
282.000000000000000 84.000000000000000 39.876968383789062
283.000000000000000 84.000000000000000 39.557216644287109
284.000000000000000 84.000000000000000 36.821903228759766
285.000000000000000 84.000000000000000 35.851505279541016
286.000000000000000 84.000000000000000 34.486366271972656
287.000000000000000 84.000000000000000 34.171939849853516
288.000000000000000 84.000000000000000 31.829938888549805
289.000000000000000 84.000000000000000 31.662330627441406
290.000000000000000 84.000000000000000 31.054204940795898
291.000000000000000 84.000000000000000 31.547164916992188
292.000000000000000 84.000000000000000 30.466388702392578
293.000000000000000 84.000000000000000 30.241941452026367
294.000000000000000 84.000000000000000 30.376916885375977
295.000000000000000 84.000000000000000 31.661878585815430
296.000000000000000 84.000000000000000 29.630363464355469
297.000000000000000 84.000000000000000 29.356370925903320
298.000000000000000 84.000000000000000 27.716350555419922
299.000000000000000 84.000000000000000 26.954296112060547
300.000000000000000 84.000000000000000 25.853221893310547
301.000000000000000 84.000000000000000 25.254127502441406
302.000000000000000 84.000000000000000 22.492534637451172
303.000000000000000 84.000000000000000 20.118133544921875
304.000000000000000 84.000000000000000 11.433793067932129
305.000000000000000 84.000000000000000 11.623280525207520
306.000000000000000 84.000000000000000 10.470230102539062
307.000000000000000 84.000000000000000 10.362188339233398
308.000000000000000 84.000000000000000 8.776997566223145
309.000000000000000 84.000000000000000 8.713207244873047
310.000000000000000 84.000000000000000 8.129208564758301
311.000000000000000 84.000000000000000 7.489357471466064
312.000000000000000 84.000000000000000 6.278251647949219
313.000000000000000 84.000000000000000 5.362138748168945
314.000000000000000 84.000000000000000 4.970429897308350
315.000000000000000 84.000000000000000 3.701940774917603
316.000000000000000 84.000000000000000 2.689540386199951
317.000000000000000 84.000000000000000 1.987350702285767
318.000000000000000 84.000000000000000 1.220522284507751
319.000000000000000 84.000000000000000 0.095230840146542
226.000000000000000 85.000000000000000 47.341945648193359
227.000000000000000 85.000000000000000 48.184680938720703
228.000000000000000 85.000000000000000 49.086685180664062
229.000000000000000 85.000000000000000 48.744220733642578
230.000000000000000 85.000000000000000 49.222297668457031
231.000000000000000 85.000000000000000 49.609985351562500
232.000000000000000 85.000000000000000 50.689109802246094
233.000000000000000 85.000000000000000 51.271640777587891
234.000000000000000 85.000000000000000 50.706123352050781
235.000000000000000 85.000000000000000 51.714988708496094
236.000000000000000 85.000000000000000 51.657577514648438
237.000000000000000 85.000000000000000 52.717189788818359
238.000000000000000 85.000000000000000 52.507907867431641
239.000000000000000 85.000000000000000 52.863651275634766
240.000000000000000 85.000000000000000 52.720291137695312
241.000000000000000 85.000000000000000 53.005935668945312
242.000000000000000 85.000000000000000 52.608943939208984
243.000000000000000 85.000000000000000 52.732017517089844
244.000000000000000 85.000000000000000 52.608566284179688
245.000000000000000 85.000000000000000 52.831161499023438
246.000000000000000 85.000000000000000 52.827152252197266
247.000000000000000 85.000000000000000 52.839355468750000
248.000000000000000 85.000000000000000 53.105487823486328
249.000000000000000 85.000000000000000 53.026161193847656
250.000000000000000 85.000000000000000 53.227062225341797
251.000000000000000 85.000000000000000 53.272743225097656
252.000000000000000 85.000000000000000 53.413894653320312
253.000000000000000 85.000000000000000 53.117359161376953
254.000000000000000 85.000000000000000 53.151504516601562
255.000000000000000 85.000000000000000 53.099010467529297
256.000000000000000 85.000000000000000 53.100536346435547
257.000000000000000 85.000000000000000 52.839778900146484
258.000000000000000 85.000000000000000 52.771625518798828
259.000000000000000 85.000000000000000 53.040088653564453
260.000000000000000 85.000000000000000 52.897777557373047
261.000000000000000 85.000000000000000 52.872978210449219
262.000000000000000 85.000000000000000 52.469310760498047
263.000000000000000 85.000000000000000 52.845436096191406
264.000000000000000 85.000000000000000 52.088306427001953
265.000000000000000 85.000000000000000 52.458427429199219
266.000000000000000 85.000000000000000 51.340049743652344
267.000000000000000 85.000000000000000 51.967170715332031
268.000000000000000 85.000000000000000 50.722179412841797
269.000000000000000 85.000000000000000 51.199638366699219
270.000000000000000 85.000000000000000 49.902835845947266
271.000000000000000 85.000000000000000 50.464633941650391
272.000000000000000 85.000000000000000 49.404636383056641
273.000000000000000 85.000000000000000 50.187435150146484
274.000000000000000 85.000000000000000 49.598682403564453
275.000000000000000 85.000000000000000 49.565593719482422
276.000000000000000 85.000000000000000 48.217262268066406
277.000000000000000 85.000000000000000 48.218151092529297
278.000000000000000 85.000000000000000 46.099342346191406
279.000000000000000 85.000000000000000 45.440567016601562
280.000000000000000 85.000000000000000 42.661537170410156
281.000000000000000 85.000000000000000 40.686691284179688
282.000000000000000 85.000000000000000 38.308639526367188
283.000000000000000 85.000000000000000 38.046810150146484
284.000000000000000 85.000000000000000 36.201290130615234
285.000000000000000 85.000000000000000 34.248374938964844
286.000000000000000 85.000000000000000 33.224807739257812
287.000000000000000 85.000000000000000 32.408367156982422
288.000000000000000 85.000000000000000 31.863605499267578
289.000000000000000 85.000000000000000 31.524629592895508
290.000000000000000 85.000000000000000 31.664875030517578
291.000000000000000 85.000000000000000 31.295967102050781
292.000000000000000 85.000000000000000 31.659215927124023
293.000000000000000 85.000000000000000 30.047271728515625
294.000000000000000 85.000000000000000 30.837705612182617
295.000000000000000 85.000000000000000 29.548749923706055
296.000000000000000 85.000000000000000 29.362199783325195
297.000000000000000 85.000000000000000 28.705194473266602
298.000000000000000 85.000000000000000 28.192428588867188
299.000000000000000 85.000000000000000 26.219635009765625
300.000000000000000 85.000000000000000 25.464508056640625
301.000000000000000 85.000000000000000 24.040515899658203
302.000000000000000 85.000000000000000 20.999851226806641
303.000000000000000 85.000000000000000 18.008056640625000
304.000000000000000 85.000000000000000 10.982110023498535
305.000000000000000 85.000000000000000 10.652996063232422
306.000000000000000 85.000000000000000 10.139903068542480
307.000000000000000 85.000000000000000 8.421779632568359
308.000000000000000 85.000000000000000 8.403340339660645
309.000000000000000 85.000000000000000 8.102576255798340
310.000000000000000 85.000000000000000 7.923810005187988
311.000000000000000 85.000000000000000 6.171339035034180
312.000000000000000 85.000000000000000 5.716428756713867
313.000000000000000 85.000000000000000 5.064307212829590
314.000000000000000 85.000000000000000 4.486462593078613
315.000000000000000 85.000000000000000 2.478532791137695
316.000000000000000 85.000000000000000 2.276240587234497
317.000000000000000 85.000000000000000 1.919660568237305
227.000000000000000 86.000000000000000 48.286991119384766
228.000000000000000 86.000000000000000 49.480674743652344
229.000000000000000 86.000000000000000 49.523406982421875
230.000000000000000 86.000000000000000 50.534664154052734
231.000000000000000 86.000000000000000 50.086711883544922
232.000000000000000 86.000000000000000 51.824745178222656
233.000000000000000 86.000000000000000 51.749168395996094
234.000000000000000 86.000000000000000 51.829895019531250
235.000000000000000 86.000000000000000 51.817893981933594
236.000000000000000 86.000000000000000 52.135078430175781
237.000000000000000 86.000000000000000 52.689014434814453
238.000000000000000 86.000000000000000 52.365386962890625
239.000000000000000 86.000000000000000 52.754379272460938
240.000000000000000 86.000000000000000 52.579067230224609
241.000000000000000 86.000000000000000 52.727626800537109
242.000000000000000 86.000000000000000 52.390434265136719
243.000000000000000 86.000000000000000 52.326198577880859
244.000000000000000 86.000000000000000 52.315807342529297
245.000000000000000 86.000000000000000 52.521060943603516
246.000000000000000 86.000000000000000 52.532566070556641
247.000000000000000 86.000000000000000 52.777694702148438
248.000000000000000 86.000000000000000 53.065937042236328
249.000000000000000 86.000000000000000 53.255462646484375
250.000000000000000 86.000000000000000 53.276676177978516
251.000000000000000 86.000000000000000 53.406761169433594
252.000000000000000 86.000000000000000 53.513442993164062
253.000000000000000 86.000000000000000 53.402095794677734
254.000000000000000 86.000000000000000 53.075798034667969
255.000000000000000 86.000000000000000 53.113842010498047
256.000000000000000 86.000000000000000 53.236877441406250
257.000000000000000 86.000000000000000 53.285022735595703
258.000000000000000 86.000000000000000 52.817226409912109
259.000000000000000 86.000000000000000 53.111488342285156
260.000000000000000 86.000000000000000 53.400894165039062
261.000000000000000 86.000000000000000 53.290882110595703
262.000000000000000 86.000000000000000 52.698696136474609
263.000000000000000 86.000000000000000 52.750522613525391
264.000000000000000 86.000000000000000 52.699314117431641
265.000000000000000 86.000000000000000 52.609951019287109
266.000000000000000 86.000000000000000 52.118824005126953
267.000000000000000 86.000000000000000 51.300178527832031
268.000000000000000 86.000000000000000 51.524501800537109
269.000000000000000 86.000000000000000 51.194721221923828
270.000000000000000 86.000000000000000 50.692291259765625
271.000000000000000 86.000000000000000 49.711246490478516
272.000000000000000 86.000000000000000 50.113361358642578
273.000000000000000 86.000000000000000 50.203620910644531
274.000000000000000 86.000000000000000 49.840835571289062
275.000000000000000 86.000000000000000 48.372394561767578
276.000000000000000 86.000000000000000 48.022678375244141
277.000000000000000 86.000000000000000 46.396507263183594
278.000000000000000 86.000000000000000 45.818298339843750
279.000000000000000 86.000000000000000 43.662143707275391
280.000000000000000 86.000000000000000 41.983753204345703
281.000000000000000 86.000000000000000 39.162208557128906
282.000000000000000 86.000000000000000 37.496654510498047
283.000000000000000 86.000000000000000 36.276878356933594
284.000000000000000 86.000000000000000 34.806606292724609
285.000000000000000 86.000000000000000 32.931823730468750
286.000000000000000 86.000000000000000 31.015943527221680
287.000000000000000 86.000000000000000 31.230735778808594
288.000000000000000 86.000000000000000 30.313703536987305
289.000000000000000 86.000000000000000 30.782247543334961
290.000000000000000 86.000000000000000 30.275966644287109
291.000000000000000 86.000000000000000 30.107084274291992
292.000000000000000 86.000000000000000 30.134140014648438
293.000000000000000 86.000000000000000 29.576677322387695
294.000000000000000 86.000000000000000 28.789043426513672
295.000000000000000 86.000000000000000 27.935497283935547
296.000000000000000 86.000000000000000 27.430166244506836
297.000000000000000 86.000000000000000 27.822565078735352
298.000000000000000 86.000000000000000 27.463394165039062
299.000000000000000 86.000000000000000 26.782304763793945
300.000000000000000 86.000000000000000 24.398004531860352
301.000000000000000 86.000000000000000 24.000312805175781
302.000000000000000 86.000000000000000 20.794971466064453
303.000000000000000 86.000000000000000 18.638235092163086
304.000000000000000 86.000000000000000 9.665985107421875
305.000000000000000 86.000000000000000 9.988009452819824
306.000000000000000 86.000000000000000 8.817194938659668
307.000000000000000 86.000000000000000 8.684488296508789
308.000000000000000 86.000000000000000 7.403714179992676
309.000000000000000 86.000000000000000 7.727339744567871
310.000000000000000 86.000000000000000 6.674154281616211
311.000000000000000 86.000000000000000 5.875685214996338
312.000000000000000 86.000000000000000 5.036748886108398
313.000000000000000 86.000000000000000 4.746135711669922
314.000000000000000 86.000000000000000 3.306958436965942
315.000000000000000 86.000000000000000 2.132200002670288
316.000000000000000 86.000000000000000 0.848462343215942
317.000000000000000 86.000000000000000 1.608918190002441
227.000000000000000 87.000000000000000 49.172775268554688
228.000000000000000 87.000000000000000 49.722534179687500
229.000000000000000 87.000000000000000 49.545135498046875
230.000000000000000 87.000000000000000 49.568695068359375
231.000000000000000 87.000000000000000 49.770217895507812
232.000000000000000 87.000000000000000 50.881198883056641
233.000000000000000 87.000000000000000 51.241165161132812
234.000000000000000 87.000000000000000 50.891887664794922
235.000000000000000 87.000000000000000 52.104820251464844
236.000000000000000 87.000000000000000 51.946464538574219
237.000000000000000 87.000000000000000 52.895744323730469
238.000000000000000 87.000000000000000 52.531558990478516
239.000000000000000 87.000000000000000 52.898368835449219
240.000000000000000 87.000000000000000 52.885131835937500
241.000000000000000 87.000000000000000 53.027652740478516
242.000000000000000 87.000000000000000 52.455261230468750
243.000000000000000 87.000000000000000 52.426708221435547
244.000000000000000 87.000000000000000 52.414260864257812
245.000000000000000 87.000000000000000 52.392982482910156
246.000000000000000 87.000000000000000 52.503139495849609
247.000000000000000 87.000000000000000 52.642631530761719
248.000000000000000 87.000000000000000 53.239059448242188
249.000000000000000 87.000000000000000 53.151733398437500
250.000000000000000 87.000000000000000 53.228721618652344
251.000000000000000 87.000000000000000 53.146724700927734
252.000000000000000 87.000000000000000 53.390625000000000
253.000000000000000 87.000000000000000 53.094589233398438
254.000000000000000 87.000000000000000 52.980361938476562
255.000000000000000 87.000000000000000 52.824188232421875
256.000000000000000 87.000000000000000 53.126602172851562
257.000000000000000 87.000000000000000 52.878906250000000
258.000000000000000 87.000000000000000 52.886039733886719
259.000000000000000 87.000000000000000 52.985774993896484
260.000000000000000 87.000000000000000 52.911861419677734
261.000000000000000 87.000000000000000 53.186031341552734
262.000000000000000 87.000000000000000 52.515010833740234
263.000000000000000 87.000000000000000 52.565204620361328
264.000000000000000 87.000000000000000 51.847473144531250
265.000000000000000 87.000000000000000 52.555541992187500
266.000000000000000 87.000000000000000 51.390537261962891
267.000000000000000 87.000000000000000 51.574897766113281
268.000000000000000 87.000000000000000 50.560195922851562
269.000000000000000 87.000000000000000 51.001300811767578
270.000000000000000 87.000000000000000 49.410099029541016
271.000000000000000 87.000000000000000 49.754196166992188
272.000000000000000 87.000000000000000 48.817989349365234
273.000000000000000 87.000000000000000 49.727626800537109
274.000000000000000 87.000000000000000 48.136138916015625
275.000000000000000 87.000000000000000 47.422657012939453
276.000000000000000 87.000000000000000 46.066066741943359
277.000000000000000 87.000000000000000 45.666439056396484
278.000000000000000 87.000000000000000 43.431037902832031
279.000000000000000 87.000000000000000 41.504375457763672
280.000000000000000 87.000000000000000 39.276802062988281
281.000000000000000 87.000000000000000 38.038261413574219
282.000000000000000 87.000000000000000 35.003330230712891
283.000000000000000 87.000000000000000 33.623188018798828
284.000000000000000 87.000000000000000 32.258113861083984
285.000000000000000 87.000000000000000 31.197603225708008
286.000000000000000 87.000000000000000 30.343036651611328
287.000000000000000 87.000000000000000 30.230691909790039
288.000000000000000 87.000000000000000 31.230268478393555
289.000000000000000 87.000000000000000 30.764200210571289
290.000000000000000 87.000000000000000 31.286046981811523
291.000000000000000 87.000000000000000 29.655525207519531
292.000000000000000 87.000000000000000 29.811651229858398
293.000000000000000 87.000000000000000 28.535003662109375
294.000000000000000 87.000000000000000 28.950763702392578
295.000000000000000 87.000000000000000 27.704416275024414
296.000000000000000 87.000000000000000 27.578695297241211
297.000000000000000 87.000000000000000 27.555555343627930
298.000000000000000 87.000000000000000 26.840332031250000
299.000000000000000 87.000000000000000 24.469234466552734
300.000000000000000 87.000000000000000 23.817808151245117
301.000000000000000 87.000000000000000 23.632352828979492
302.000000000000000 87.000000000000000 21.960460662841797
303.000000000000000 87.000000000000000 18.782453536987305
304.000000000000000 87.000000000000000 9.317898750305176
305.000000000000000 87.000000000000000 8.691634178161621
306.000000000000000 87.000000000000000 8.327215194702148
307.000000000000000 87.000000000000000 7.665949821472168
308.000000000000000 87.000000000000000 7.180004596710205
309.000000000000000 87.000000000000000 6.526629447937012
310.000000000000000 87.000000000000000 6.011250495910645
311.000000000000000 87.000000000000000 4.450284957885742
312.000000000000000 87.000000000000000 4.418236732482910
313.000000000000000 87.000000000000000 2.756380319595337
314.000000000000000 87.000000000000000 1.614961385726929
315.000000000000000 87.000000000000000 0.599479436874390
228.000000000000000 88.000000000000000 48.579719543457031
229.000000000000000 88.000000000000000 49.454025268554688
230.000000000000000 88.000000000000000 49.704708099365234
231.000000000000000 88.000000000000000 49.870822906494141
232.000000000000000 88.000000000000000 51.305168151855469
233.000000000000000 88.000000000000000 51.727642059326172
234.000000000000000 88.000000000000000 51.874324798583984
235.000000000000000 88.000000000000000 52.057716369628906
236.000000000000000 88.000000000000000 52.222492218017578
237.000000000000000 88.000000000000000 52.814308166503906
238.000000000000000 88.000000000000000 52.212894439697266
239.000000000000000 88.000000000000000 52.735385894775391
240.000000000000000 88.000000000000000 52.793739318847656
241.000000000000000 88.000000000000000 52.855640411376953
242.000000000000000 88.000000000000000 52.283397674560547
243.000000000000000 88.000000000000000 52.124538421630859
244.000000000000000 88.000000000000000 52.096458435058594
245.000000000000000 88.000000000000000 52.436962127685547
246.000000000000000 88.000000000000000 52.380966186523438
247.000000000000000 88.000000000000000 52.813888549804688
248.000000000000000 88.000000000000000 53.116325378417969
249.000000000000000 88.000000000000000 53.498226165771484
250.000000000000000 88.000000000000000 53.050277709960938
251.000000000000000 88.000000000000000 53.406650543212891
252.000000000000000 88.000000000000000 53.255973815917969
253.000000000000000 88.000000000000000 53.342670440673828
254.000000000000000 88.000000000000000 52.978008270263672
255.000000000000000 88.000000000000000 53.091636657714844
256.000000000000000 88.000000000000000 52.912982940673828
257.000000000000000 88.000000000000000 53.370910644531250
258.000000000000000 88.000000000000000 53.034008026123047
259.000000000000000 88.000000000000000 53.341552734375000
260.000000000000000 88.000000000000000 53.212444305419922
261.000000000000000 88.000000000000000 53.093677520751953
262.000000000000000 88.000000000000000 52.748497009277344
263.000000000000000 88.000000000000000 52.621585845947266
264.000000000000000 88.000000000000000 51.994281768798828
265.000000000000000 88.000000000000000 52.282505035400391
266.000000000000000 88.000000000000000 51.936939239501953
267.000000000000000 88.000000000000000 51.356750488281250
268.000000000000000 88.000000000000000 51.112220764160156
269.000000000000000 88.000000000000000 50.324222564697266
270.000000000000000 88.000000000000000 50.327686309814453
271.000000000000000 88.000000000000000 49.519546508789062
272.000000000000000 88.000000000000000 49.194667816162109
273.000000000000000 88.000000000000000 48.907272338867188
274.000000000000000 88.000000000000000 47.583728790283203
275.000000000000000 88.000000000000000 45.786350250244141
276.000000000000000 88.000000000000000 45.882556915283203
277.000000000000000 88.000000000000000 44.322841644287109
278.000000000000000 88.000000000000000 42.190444946289062
279.000000000000000 88.000000000000000 39.497680664062500
280.000000000000000 88.000000000000000 37.297698974609375
281.000000000000000 88.000000000000000 36.051170349121094
282.000000000000000 88.000000000000000 33.440025329589844
283.000000000000000 88.000000000000000 32.443046569824219
284.000000000000000 88.000000000000000 29.491409301757812
285.000000000000000 88.000000000000000 29.909318923950195
286.000000000000000 88.000000000000000 28.816507339477539
287.000000000000000 88.000000000000000 29.868663787841797
288.000000000000000 88.000000000000000 28.988817214965820
289.000000000000000 88.000000000000000 28.825744628906250
290.000000000000000 88.000000000000000 29.062963485717773
291.000000000000000 88.000000000000000 28.835371017456055
292.000000000000000 88.000000000000000 27.736549377441406
293.000000000000000 88.000000000000000 27.449785232543945
294.000000000000000 88.000000000000000 27.498411178588867
295.000000000000000 88.000000000000000 28.407464981079102
296.000000000000000 88.000000000000000 26.437303543090820
297.000000000000000 88.000000000000000 26.203998565673828
298.000000000000000 88.000000000000000 25.201004028320312
299.000000000000000 88.000000000000000 24.645519256591797
300.000000000000000 88.000000000000000 22.774463653564453
301.000000000000000 88.000000000000000 22.810857772827148
302.000000000000000 88.000000000000000 19.739753723144531
303.000000000000000 88.000000000000000 17.299774169921875
304.000000000000000 88.000000000000000 8.991833686828613
305.000000000000000 88.000000000000000 9.002212524414062
306.000000000000000 88.000000000000000 7.552824497222900
307.000000000000000 88.000000000000000 7.352795600891113
308.000000000000000 88.000000000000000 5.989356994628906
309.000000000000000 88.000000000000000 5.827458858489990
310.000000000000000 88.000000000000000 4.486255645751953
311.000000000000000 88.000000000000000 3.479105949401855
312.000000000000000 88.000000000000000 2.194314002990723
313.000000000000000 88.000000000000000 0.903654932975769
229.000000000000000 89.000000000000000 49.463935852050781
230.000000000000000 89.000000000000000 48.390274047851562
231.000000000000000 89.000000000000000 48.750732421875000
232.000000000000000 89.000000000000000 50.086109161376953
233.000000000000000 89.000000000000000 50.662166595458984
234.000000000000000 89.000000000000000 50.408748626708984
235.000000000000000 89.000000000000000 51.692615509033203
236.000000000000000 89.000000000000000 51.505657196044922
237.000000000000000 89.000000000000000 52.458175659179688
238.000000000000000 89.000000000000000 52.128673553466797
239.000000000000000 89.000000000000000 52.938152313232422
240.000000000000000 89.000000000000000 52.831501007080078
241.000000000000000 89.000000000000000 52.912784576416016
242.000000000000000 89.000000000000000 52.285896301269531
243.000000000000000 89.000000000000000 52.274566650390625
244.000000000000000 89.000000000000000 52.286975860595703
245.000000000000000 89.000000000000000 52.431671142578125
246.000000000000000 89.000000000000000 52.586036682128906
247.000000000000000 89.000000000000000 52.766792297363281
248.000000000000000 89.000000000000000 53.066467285156250
249.000000000000000 89.000000000000000 52.913639068603516
250.000000000000000 89.000000000000000 52.961631774902344
251.000000000000000 89.000000000000000 52.856834411621094
252.000000000000000 89.000000000000000 53.018295288085938
253.000000000000000 89.000000000000000 52.582672119140625
254.000000000000000 89.000000000000000 52.715431213378906
255.000000000000000 89.000000000000000 52.692253112792969
256.000000000000000 89.000000000000000 52.846786499023438
257.000000000000000 89.000000000000000 52.674518585205078
258.000000000000000 89.000000000000000 52.625736236572266
259.000000000000000 89.000000000000000 52.845634460449219
260.000000000000000 89.000000000000000 52.405418395996094
261.000000000000000 89.000000000000000 52.135372161865234
262.000000000000000 89.000000000000000 51.691284179687500
263.000000000000000 89.000000000000000 52.205558776855469
264.000000000000000 89.000000000000000 51.607246398925781
265.000000000000000 89.000000000000000 52.009571075439453
266.000000000000000 89.000000000000000 51.261062622070312
267.000000000000000 89.000000000000000 51.549514770507812
268.000000000000000 89.000000000000000 50.748142242431641
269.000000000000000 89.000000000000000 50.803127288818359
270.000000000000000 89.000000000000000 49.464714050292969
271.000000000000000 89.000000000000000 49.319866180419922
272.000000000000000 89.000000000000000 48.389057159423828
273.000000000000000 89.000000000000000 47.694473266601562
274.000000000000000 89.000000000000000 46.354431152343750
275.000000000000000 89.000000000000000 45.582996368408203
276.000000000000000 89.000000000000000 43.871692657470703
277.000000000000000 89.000000000000000 42.269062042236328
278.000000000000000 89.000000000000000 38.696487426757812
279.000000000000000 89.000000000000000 36.788295745849609
280.000000000000000 89.000000000000000 34.260772705078125
281.000000000000000 89.000000000000000 34.724674224853516
282.000000000000000 89.000000000000000 30.785657882690430
283.000000000000000 89.000000000000000 29.920736312866211
284.000000000000000 89.000000000000000 27.656379699707031
285.000000000000000 89.000000000000000 27.502676010131836
286.000000000000000 89.000000000000000 26.796873092651367
287.000000000000000 89.000000000000000 27.770505905151367
288.000000000000000 89.000000000000000 28.086053848266602
289.000000000000000 89.000000000000000 28.008287429809570
290.000000000000000 89.000000000000000 28.804433822631836
291.000000000000000 89.000000000000000 28.241104125976562
292.000000000000000 89.000000000000000 28.206329345703125
293.000000000000000 89.000000000000000 26.325410842895508
294.000000000000000 89.000000000000000 27.527935028076172
295.000000000000000 89.000000000000000 26.192874908447266
296.000000000000000 89.000000000000000 25.614656448364258
297.000000000000000 89.000000000000000 24.926383972167969
298.000000000000000 89.000000000000000 25.183704376220703
299.000000000000000 89.000000000000000 23.586681365966797
300.000000000000000 89.000000000000000 22.863210678100586
301.000000000000000 89.000000000000000 21.263723373413086
302.000000000000000 89.000000000000000 17.807949066162109
303.000000000000000 89.000000000000000 15.571324348449707
304.000000000000000 89.000000000000000 8.231678962707520
305.000000000000000 89.000000000000000 7.342404365539551
306.000000000000000 89.000000000000000 6.990724086761475
307.000000000000000 89.000000000000000 5.425199985504150
308.000000000000000 89.000000000000000 5.868807315826416
309.000000000000000 89.000000000000000 4.978425025939941
310.000000000000000 89.000000000000000 4.041891098022461
311.000000000000000 89.000000000000000 2.136109352111816
312.000000000000000 89.000000000000000 0.996431529521942
229.000000000000000 90.000000000000000 48.463008880615234
230.000000000000000 90.000000000000000 48.820209503173828
231.000000000000000 90.000000000000000 49.928169250488281
232.000000000000000 90.000000000000000 51.002098083496094
233.000000000000000 90.000000000000000 51.268543243408203
234.000000000000000 90.000000000000000 51.504550933837891
235.000000000000000 90.000000000000000 51.766586303710938
236.000000000000000 90.000000000000000 51.446010589599609
237.000000000000000 90.000000000000000 51.940322875976562
238.000000000000000 90.000000000000000 51.780124664306641
239.000000000000000 90.000000000000000 52.420986175537109
240.000000000000000 90.000000000000000 52.536880493164062
241.000000000000000 90.000000000000000 52.555309295654297
242.000000000000000 90.000000000000000 51.811607360839844
243.000000000000000 90.000000000000000 51.965229034423828
244.000000000000000 90.000000000000000 51.910083770751953
245.000000000000000 90.000000000000000 52.318557739257812
246.000000000000000 90.000000000000000 52.203308105468750
247.000000000000000 90.000000000000000 52.567203521728516
248.000000000000000 90.000000000000000 52.733459472656250
249.000000000000000 90.000000000000000 53.038452148437500
250.000000000000000 90.000000000000000 52.664432525634766
251.000000000000000 90.000000000000000 52.905158996582031
252.000000000000000 90.000000000000000 52.959960937500000
253.000000000000000 90.000000000000000 52.806259155273438
254.000000000000000 90.000000000000000 52.468334197998047
255.000000000000000 90.000000000000000 52.659061431884766
256.000000000000000 90.000000000000000 52.842906951904297
257.000000000000000 90.000000000000000 52.925056457519531
258.000000000000000 90.000000000000000 52.294113159179688
259.000000000000000 90.000000000000000 52.446762084960938
260.000000000000000 90.000000000000000 52.341873168945312
261.000000000000000 90.000000000000000 51.924186706542969
262.000000000000000 90.000000000000000 51.795707702636719
263.000000000000000 90.000000000000000 51.686397552490234
264.000000000000000 90.000000000000000 51.704296112060547
265.000000000000000 90.000000000000000 52.001880645751953
266.000000000000000 90.000000000000000 51.437808990478516
267.000000000000000 90.000000000000000 50.899681091308594
268.000000000000000 90.000000000000000 51.103004455566406
269.000000000000000 90.000000000000000 50.868057250976562
270.000000000000000 90.000000000000000 50.106781005859375
271.000000000000000 90.000000000000000 49.574363708496094
272.000000000000000 90.000000000000000 48.229831695556641
273.000000000000000 90.000000000000000 47.293315887451172
274.000000000000000 90.000000000000000 45.833274841308594
275.000000000000000 90.000000000000000 44.462326049804688
276.000000000000000 90.000000000000000 42.793388366699219
277.000000000000000 90.000000000000000 40.067901611328125
278.000000000000000 90.000000000000000 37.397666931152344
279.000000000000000 90.000000000000000 35.699279785156250
280.000000000000000 90.000000000000000 32.274257659912109
281.000000000000000 90.000000000000000 31.848468780517578
282.000000000000000 90.000000000000000 30.028612136840820
283.000000000000000 90.000000000000000 29.376071929931641
284.000000000000000 90.000000000000000 25.671380996704102
285.000000000000000 90.000000000000000 26.351173400878906
286.000000000000000 90.000000000000000 24.063339233398438
287.000000000000000 90.000000000000000 26.519466400146484
288.000000000000000 90.000000000000000 24.517681121826172
289.000000000000000 90.000000000000000 25.810571670532227
290.000000000000000 90.000000000000000 25.883255004882812
291.000000000000000 90.000000000000000 26.151224136352539
292.000000000000000 90.000000000000000 26.285749435424805
293.000000000000000 90.000000000000000 25.903835296630859
294.000000000000000 90.000000000000000 24.823961257934570
295.000000000000000 90.000000000000000 24.440078735351562
296.000000000000000 90.000000000000000 23.318807601928711
297.000000000000000 90.000000000000000 23.236700057983398
298.000000000000000 90.000000000000000 23.530515670776367
