ply
format ascii 1.0
element vertex 811
property double x
property double y
property double z
end_header
361.000000000000000 207.000000000000000 47.473907470703125
362.000000000000000 207.000000000000000 47.019233703613281
363.000000000000000 207.000000000000000 46.826606750488281
364.000000000000000 207.000000000000000 46.662597656250000
365.000000000000000 207.000000000000000 46.979213714599609
366.000000000000000 207.000000000000000 46.687534332275391
367.000000000000000 207.000000000000000 46.678714752197266
368.000000000000000 207.000000000000000 46.021152496337891
369.000000000000000 207.000000000000000 46.735378265380859
370.000000000000000 207.000000000000000 46.454551696777344
371.000000000000000 207.000000000000000 46.599479675292969
372.000000000000000 207.000000000000000 46.510063171386719
373.000000000000000 207.000000000000000 46.572849273681641
374.000000000000000 207.000000000000000 46.253147125244141
375.000000000000000 207.000000000000000 46.092826843261719
376.000000000000000 207.000000000000000 45.897911071777344
377.000000000000000 207.000000000000000 45.892627716064453
378.000000000000000 207.000000000000000 45.906734466552734
379.000000000000000 207.000000000000000 45.500278472900391
380.000000000000000 207.000000000000000 45.207851409912109
381.000000000000000 207.000000000000000 44.853660583496094
382.000000000000000 207.000000000000000 44.959327697753906
383.000000000000000 207.000000000000000 44.353324890136719
384.000000000000000 207.000000000000000 44.383060455322266
385.000000000000000 207.000000000000000 43.438774108886719
386.000000000000000 207.000000000000000 43.388359069824219
387.000000000000000 207.000000000000000 43.023036956787109
388.000000000000000 207.000000000000000 43.122890472412109
389.000000000000000 207.000000000000000 42.599292755126953
390.000000000000000 207.000000000000000 43.053527832031250
391.000000000000000 207.000000000000000 43.191539764404297
392.000000000000000 207.000000000000000 43.441944122314453
393.000000000000000 207.000000000000000 43.344257354736328
394.000000000000000 207.000000000000000 43.237300872802734
395.000000000000000 207.000000000000000 42.833003997802734
396.000000000000000 207.000000000000000 42.562381744384766
397.000000000000000 207.000000000000000 41.972347259521484
398.000000000000000 207.000000000000000 41.638175964355469
399.000000000000000 207.000000000000000 41.152378082275391
400.000000000000000 207.000000000000000 40.901176452636719
401.000000000000000 207.000000000000000 40.679981231689453
402.000000000000000 207.000000000000000 40.281948089599609
403.000000000000000 207.000000000000000 39.449337005615234
404.000000000000000 207.000000000000000 40.044872283935547
405.000000000000000 207.000000000000000 39.484947204589844
406.000000000000000 207.000000000000000 39.474548339843750
407.000000000000000 207.000000000000000 38.559322357177734
408.000000000000000 207.000000000000000 38.903003692626953
409.000000000000000 207.000000000000000 38.209434509277344
410.000000000000000 207.000000000000000 38.190059661865234
411.000000000000000 207.000000000000000 37.185646057128906
120.000000000000000 208.000000000000000 48.650756835937500
121.000000000000000 208.000000000000000 48.976703643798828
122.000000000000000 208.000000000000000 49.719680786132812
123.000000000000000 208.000000000000000 50.052158355712891
124.000000000000000 208.000000000000000 50.687583923339844
125.000000000000000 208.000000000000000 50.774368286132812
126.000000000000000 208.000000000000000 50.860164642333984
127.000000000000000 208.000000000000000 51.366016387939453
128.000000000000000 208.000000000000000 52.017494201660156
129.000000000000000 208.000000000000000 52.830490112304688
130.000000000000000 208.000000000000000 52.760471343994141
131.000000000000000 208.000000000000000 53.213336944580078
132.000000000000000 208.000000000000000 53.476398468017578
133.000000000000000 208.000000000000000 53.853233337402344
134.000000000000000 208.000000000000000 53.972793579101562
135.000000000000000 208.000000000000000 54.312435150146484
136.000000000000000 208.000000000000000 54.535522460937500
137.000000000000000 208.000000000000000 54.828857421875000
138.000000000000000 208.000000000000000 54.597675323486328
139.000000000000000 208.000000000000000 54.723793029785156
140.000000000000000 208.000000000000000 55.154697418212891
141.000000000000000 208.000000000000000 55.465194702148438
142.000000000000000 208.000000000000000 55.524833679199219
143.000000000000000 208.000000000000000 55.243366241455078
144.000000000000000 208.000000000000000 55.366210937500000
145.000000000000000 208.000000000000000 55.325614929199219
146.000000000000000 208.000000000000000 55.468368530273438
147.000000000000000 208.000000000000000 55.861648559570312
148.000000000000000 208.000000000000000 55.742996215820312
149.000000000000000 208.000000000000000 56.047088623046875
150.000000000000000 208.000000000000000 55.926090240478516
151.000000000000000 208.000000000000000 56.115005493164062
152.000000000000000 208.000000000000000 55.780597686767578
153.000000000000000 208.000000000000000 55.699523925781250
154.000000000000000 208.000000000000000 55.283061981201172
155.000000000000000 208.000000000000000 55.350498199462891
156.000000000000000 208.000000000000000 54.627674102783203
157.000000000000000 208.000000000000000 55.116970062255859
158.000000000000000 208.000000000000000 54.763854980468750
159.000000000000000 208.000000000000000 55.345367431640625
160.000000000000000 208.000000000000000 54.806674957275391
161.000000000000000 208.000000000000000 55.029891967773438
162.000000000000000 208.000000000000000 54.673961639404297
163.000000000000000 208.000000000000000 54.749534606933594
164.000000000000000 208.000000000000000 54.449668884277344
165.000000000000000 208.000000000000000 54.153820037841797
166.000000000000000 208.000000000000000 53.958988189697266
167.000000000000000 208.000000000000000 54.138698577880859
168.000000000000000 208.000000000000000 53.688838958740234
169.000000000000000 208.000000000000000 53.474674224853516
170.000000000000000 208.000000000000000 53.124683380126953
171.000000000000000 208.000000000000000 53.164459228515625
172.000000000000000 208.000000000000000 53.197055816650391
173.000000000000000 208.000000000000000 52.891788482666016
174.000000000000000 208.000000000000000 52.354267120361328
175.000000000000000 208.000000000000000 52.310600280761719
176.000000000000000 208.000000000000000 52.079715728759766
177.000000000000000 208.000000000000000 51.986335754394531
178.000000000000000 208.000000000000000 51.135974884033203
179.000000000000000 208.000000000000000 50.726524353027344
180.000000000000000 208.000000000000000 49.762512207031250
181.000000000000000 208.000000000000000 49.553646087646484
182.000000000000000 208.000000000000000 48.612968444824219
183.000000000000000 208.000000000000000 48.357936859130859
184.000000000000000 208.000000000000000 47.287956237792969
185.000000000000000 208.000000000000000 46.820110321044922
186.000000000000000 208.000000000000000 45.813140869140625
187.000000000000000 208.000000000000000 45.332771301269531
188.000000000000000 208.000000000000000 44.983673095703125
189.000000000000000 208.000000000000000 38.910461425781250
190.000000000000000 208.000000000000000 33.587955474853516
191.000000000000000 208.000000000000000 26.741991043090820
192.000000000000000 208.000000000000000 20.103862762451172
307.000000000000000 208.000000000000000 49.782440185546875
308.000000000000000 208.000000000000000 44.127742767333984
309.000000000000000 208.000000000000000 42.171554565429688
310.000000000000000 208.000000000000000 40.111087799072266
311.000000000000000 208.000000000000000 40.094909667968750
312.000000000000000 208.000000000000000 39.506813049316406
313.000000000000000 208.000000000000000 40.034984588623047
314.000000000000000 208.000000000000000 39.908905029296875
315.000000000000000 208.000000000000000 40.472885131835938
316.000000000000000 208.000000000000000 40.188491821289062
317.000000000000000 208.000000000000000 40.765182495117188
318.000000000000000 208.000000000000000 40.465847015380859
319.000000000000000 208.000000000000000 40.822826385498047
320.000000000000000 208.000000000000000 40.775943756103516
321.000000000000000 208.000000000000000 41.334251403808594
322.000000000000000 208.000000000000000 41.085197448730469
323.000000000000000 208.000000000000000 42.087524414062500
324.000000000000000 208.000000000000000 41.682621002197266
325.000000000000000 208.000000000000000 41.896297454833984
326.000000000000000 208.000000000000000 42.212726593017578
327.000000000000000 208.000000000000000 42.519039154052734
328.000000000000000 208.000000000000000 42.651332855224609
329.000000000000000 208.000000000000000 42.999042510986328
330.000000000000000 208.000000000000000 43.338275909423828
331.000000000000000 208.000000000000000 43.369873046875000
332.000000000000000 208.000000000000000 43.120651245117188
333.000000000000000 208.000000000000000 44.570064544677734
334.000000000000000 208.000000000000000 44.126758575439453
335.000000000000000 208.000000000000000 44.834308624267578
336.000000000000000 208.000000000000000 43.938831329345703
337.000000000000000 208.000000000000000 45.147930145263672
338.000000000000000 208.000000000000000 44.996009826660156
339.000000000000000 208.000000000000000 45.930587768554688
340.000000000000000 208.000000000000000 45.428607940673828
341.000000000000000 208.000000000000000 45.637966156005859
342.000000000000000 208.000000000000000 45.765232086181641
343.000000000000000 208.000000000000000 45.960014343261719
344.000000000000000 208.000000000000000 45.866004943847656
345.000000000000000 208.000000000000000 45.511802673339844
346.000000000000000 208.000000000000000 45.816230773925781
347.000000000000000 208.000000000000000 45.764930725097656
348.000000000000000 208.000000000000000 46.383632659912109
349.000000000000000 208.000000000000000 46.753482818603516
350.000000000000000 208.000000000000000 46.785961151123047
351.000000000000000 208.000000000000000 46.706485748291016
352.000000000000000 208.000000000000000 46.556251525878906
353.000000000000000 208.000000000000000 47.025863647460938
354.000000000000000 208.000000000000000 45.855346679687500
355.000000000000000 208.000000000000000 46.786762237548828
356.000000000000000 208.000000000000000 45.874824523925781
357.000000000000000 208.000000000000000 46.956016540527344
358.000000000000000 208.000000000000000 46.406616210937500
359.000000000000000 208.000000000000000 47.145339965820312
360.000000000000000 208.000000000000000 46.805919647216797
361.000000000000000 208.000000000000000 47.650302886962891
362.000000000000000 208.000000000000000 47.198501586914062
363.000000000000000 208.000000000000000 47.119899749755859
364.000000000000000 208.000000000000000 46.989398956298828
365.000000000000000 208.000000000000000 46.873588562011719
366.000000000000000 208.000000000000000 46.894039154052734
367.000000000000000 208.000000000000000 46.663932800292969
368.000000000000000 208.000000000000000 46.514003753662109
369.000000000000000 208.000000000000000 46.752212524414062
370.000000000000000 208.000000000000000 46.659297943115234
371.000000000000000 208.000000000000000 46.689678192138672
372.000000000000000 208.000000000000000 46.490943908691406
373.000000000000000 208.000000000000000 46.638679504394531
374.000000000000000 208.000000000000000 46.064563751220703
375.000000000000000 208.000000000000000 46.132701873779297
376.000000000000000 208.000000000000000 45.882408142089844
377.000000000000000 208.000000000000000 46.220287322998047
378.000000000000000 208.000000000000000 45.743911743164062
379.000000000000000 208.000000000000000 45.442058563232422
380.000000000000000 208.000000000000000 44.959186553955078
381.000000000000000 208.000000000000000 44.836658477783203
382.000000000000000 208.000000000000000 44.381561279296875
383.000000000000000 208.000000000000000 43.991096496582031
384.000000000000000 208.000000000000000 43.901409149169922
385.000000000000000 208.000000000000000 43.306415557861328
386.000000000000000 208.000000000000000 43.250213623046875
387.000000000000000 208.000000000000000 42.892078399658203
388.000000000000000 208.000000000000000 43.087661743164062
389.000000000000000 208.000000000000000 42.621139526367188
390.000000000000000 208.000000000000000 42.984077453613281
391.000000000000000 208.000000000000000 42.887588500976562
392.000000000000000 208.000000000000000 43.636535644531250
393.000000000000000 208.000000000000000 43.410343170166016
394.000000000000000 208.000000000000000 43.050998687744141
395.000000000000000 208.000000000000000 42.632221221923828
396.000000000000000 208.000000000000000 42.780269622802734
397.000000000000000 208.000000000000000 42.778873443603516
398.000000000000000 208.000000000000000 42.185604095458984
399.000000000000000 208.000000000000000 41.552116394042969
400.000000000000000 208.000000000000000 40.772167205810547
401.000000000000000 208.000000000000000 41.074806213378906
402.000000000000000 208.000000000000000 40.980880737304688
403.000000000000000 208.000000000000000 40.464836120605469
404.000000000000000 208.000000000000000 40.247020721435547
405.000000000000000 208.000000000000000 40.396224975585938
406.000000000000000 208.000000000000000 40.170524597167969
407.000000000000000 208.000000000000000 40.176956176757812
408.000000000000000 208.000000000000000 39.002635955810547
409.000000000000000 208.000000000000000 38.170524597167969
410.000000000000000 208.000000000000000 38.055168151855469
411.000000000000000 208.000000000000000 37.782882690429688
121.000000000000000 209.000000000000000 49.582172393798828
122.000000000000000 209.000000000000000 50.428508758544922
123.000000000000000 209.000000000000000 50.637142181396484
124.000000000000000 209.000000000000000 50.777896881103516
125.000000000000000 209.000000000000000 50.534637451171875
126.000000000000000 209.000000000000000 50.554763793945312
127.000000000000000 209.000000000000000 51.173915863037109
128.000000000000000 209.000000000000000 51.880180358886719
129.000000000000000 209.000000000000000 52.544277191162109
130.000000000000000 209.000000000000000 52.787590026855469
131.000000000000000 209.000000000000000 53.157417297363281
132.000000000000000 209.000000000000000 53.083473205566406
133.000000000000000 209.000000000000000 53.385387420654297
134.000000000000000 209.000000000000000 53.468040466308594
135.000000000000000 209.000000000000000 53.914958953857422
136.000000000000000 209.000000000000000 54.144378662109375
137.000000000000000 209.000000000000000 54.354183197021484
138.000000000000000 209.000000000000000 54.723018646240234
139.000000000000000 209.000000000000000 54.924438476562500
140.000000000000000 209.000000000000000 55.180648803710938
141.000000000000000 209.000000000000000 55.280445098876953
142.000000000000000 209.000000000000000 55.358184814453125
143.000000000000000 209.000000000000000 55.141532897949219
144.000000000000000 209.000000000000000 55.318279266357422
145.000000000000000 209.000000000000000 55.265026092529297
146.000000000000000 209.000000000000000 55.378814697265625
147.000000000000000 209.000000000000000 55.682922363281250
148.000000000000000 209.000000000000000 55.411502838134766
149.000000000000000 209.000000000000000 55.581066131591797
150.000000000000000 209.000000000000000 55.107460021972656
151.000000000000000 209.000000000000000 55.308807373046875
152.000000000000000 209.000000000000000 55.064586639404297
153.000000000000000 209.000000000000000 55.287960052490234
154.000000000000000 209.000000000000000 54.775260925292969
155.000000000000000 209.000000000000000 54.516445159912109
156.000000000000000 209.000000000000000 54.718757629394531
157.000000000000000 209.000000000000000 55.079753875732422
158.000000000000000 209.000000000000000 55.261890411376953
159.000000000000000 209.000000000000000 55.143501281738281
160.000000000000000 209.000000000000000 55.095966339111328
161.000000000000000 209.000000000000000 54.951770782470703
162.000000000000000 209.000000000000000 54.799243927001953
163.000000000000000 209.000000000000000 54.503520965576172
164.000000000000000 209.000000000000000 54.582763671875000
165.000000000000000 209.000000000000000 54.087879180908203
166.000000000000000 209.000000000000000 54.445968627929688
167.000000000000000 209.000000000000000 54.006019592285156
168.000000000000000 209.000000000000000 54.067028045654297
169.000000000000000 209.000000000000000 53.337833404541016
170.000000000000000 209.000000000000000 53.221954345703125
171.000000000000000 209.000000000000000 52.859111785888672
172.000000000000000 209.000000000000000 53.369907379150391
173.000000000000000 209.000000000000000 52.740509033203125
174.000000000000000 209.000000000000000 52.572193145751953
175.000000000000000 209.000000000000000 52.354057312011719
176.000000000000000 209.000000000000000 52.320281982421875
177.000000000000000 209.000000000000000 52.051139831542969
178.000000000000000 209.000000000000000 51.241611480712891
179.000000000000000 209.000000000000000 50.793041229248047
180.000000000000000 209.000000000000000 49.931579589843750
181.000000000000000 209.000000000000000 49.300167083740234
182.000000000000000 209.000000000000000 48.644714355468750
183.000000000000000 209.000000000000000 48.111103057861328
184.000000000000000 209.000000000000000 47.083805084228516
185.000000000000000 209.000000000000000 46.175224304199219
186.000000000000000 209.000000000000000 44.361652374267578
187.000000000000000 209.000000000000000 42.974464416503906
188.000000000000000 209.000000000000000 38.065372467041016
189.000000000000000 209.000000000000000 29.466379165649414
190.000000000000000 209.000000000000000 18.189775466918945
307.000000000000000 209.000000000000000 51.438266754150391
308.000000000000000 209.000000000000000 43.002288818359375
309.000000000000000 209.000000000000000 41.678756713867188
310.000000000000000 209.000000000000000 40.005195617675781
311.000000000000000 209.000000000000000 39.574413299560547
312.000000000000000 209.000000000000000 38.807498931884766
313.000000000000000 209.000000000000000 39.532993316650391
314.000000000000000 209.000000000000000 39.498401641845703
315.000000000000000 209.000000000000000 40.215526580810547
316.000000000000000 209.000000000000000 39.977401733398438
317.000000000000000 209.000000000000000 40.383590698242188
318.000000000000000 209.000000000000000 40.189476013183594
319.000000000000000 209.000000000000000 40.895450592041016
320.000000000000000 209.000000000000000 41.254924774169922
321.000000000000000 209.000000000000000 41.235614776611328
322.000000000000000 209.000000000000000 41.240150451660156
323.000000000000000 209.000000000000000 41.465198516845703
324.000000000000000 209.000000000000000 42.204208374023438
325.000000000000000 209.000000000000000 42.159366607666016
326.000000000000000 209.000000000000000 42.593688964843750
327.000000000000000 209.000000000000000 41.801139831542969
328.000000000000000 209.000000000000000 43.139522552490234
329.000000000000000 209.000000000000000 42.607463836669922
330.000000000000000 209.000000000000000 43.271930694580078
331.000000000000000 209.000000000000000 43.446281433105469
332.000000000000000 209.000000000000000 43.893798828125000
333.000000000000000 209.000000000000000 44.215679168701172
334.000000000000000 209.000000000000000 44.993953704833984
335.000000000000000 209.000000000000000 45.057655334472656
336.000000000000000 209.000000000000000 44.776115417480469
337.000000000000000 209.000000000000000 45.085021972656250
338.000000000000000 209.000000000000000 45.464431762695312
339.000000000000000 209.000000000000000 45.618045806884766
340.000000000000000 209.000000000000000 45.178794860839844
341.000000000000000 209.000000000000000 45.565910339355469
342.000000000000000 209.000000000000000 45.572364807128906
343.000000000000000 209.000000000000000 46.273525238037109
344.000000000000000 209.000000000000000 45.390289306640625
345.000000000000000 209.000000000000000 45.704925537109375
346.000000000000000 209.000000000000000 45.496955871582031
347.000000000000000 209.000000000000000 46.021591186523438
348.000000000000000 209.000000000000000 46.448925018310547
349.000000000000000 209.000000000000000 46.452495574951172
350.000000000000000 209.000000000000000 47.192512512207031
351.000000000000000 209.000000000000000 46.936035156250000
352.000000000000000 209.000000000000000 47.483390808105469
353.000000000000000 209.000000000000000 46.821475982666016
354.000000000000000 209.000000000000000 47.277835845947266
355.000000000000000 209.000000000000000 47.020984649658203
356.000000000000000 209.000000000000000 47.074066162109375
357.000000000000000 209.000000000000000 47.283973693847656
358.000000000000000 209.000000000000000 47.555515289306641
359.000000000000000 209.000000000000000 47.391819000244141
360.000000000000000 209.000000000000000 47.806385040283203
361.000000000000000 209.000000000000000 47.742073059082031
362.000000000000000 209.000000000000000 47.616287231445312
363.000000000000000 209.000000000000000 47.518222808837891
364.000000000000000 209.000000000000000 47.206829071044922
365.000000000000000 209.000000000000000 47.134689331054688
366.000000000000000 209.000000000000000 46.843246459960938
367.000000000000000 209.000000000000000 46.595104217529297
368.000000000000000 209.000000000000000 46.310161590576172
369.000000000000000 209.000000000000000 46.643508911132812
370.000000000000000 209.000000000000000 46.410709381103516
371.000000000000000 209.000000000000000 46.576000213623047
372.000000000000000 209.000000000000000 46.511829376220703
373.000000000000000 209.000000000000000 46.458461761474609
374.000000000000000 209.000000000000000 45.954360961914062
375.000000000000000 209.000000000000000 45.449680328369141
376.000000000000000 209.000000000000000 46.027355194091797
377.000000000000000 209.000000000000000 46.051406860351562
378.000000000000000 209.000000000000000 45.960052490234375
379.000000000000000 209.000000000000000 45.086944580078125
380.000000000000000 209.000000000000000 45.397098541259766
381.000000000000000 209.000000000000000 44.979251861572266
382.000000000000000 209.000000000000000 44.581489562988281
383.000000000000000 209.000000000000000 43.526390075683594
384.000000000000000 209.000000000000000 43.979808807373047
385.000000000000000 209.000000000000000 43.104866027832031
386.000000000000000 209.000000000000000 43.237037658691406
387.000000000000000 209.000000000000000 42.840423583984375
388.000000000000000 209.000000000000000 43.029968261718750
389.000000000000000 209.000000000000000 42.324962615966797
390.000000000000000 209.000000000000000 42.869899749755859
391.000000000000000 209.000000000000000 42.834236145019531
392.000000000000000 209.000000000000000 43.784996032714844
393.000000000000000 209.000000000000000 43.524787902832031
394.000000000000000 209.000000000000000 43.606895446777344
395.000000000000000 209.000000000000000 42.991653442382812
396.000000000000000 209.000000000000000 42.732170104980469
397.000000000000000 209.000000000000000 42.642044067382812
398.000000000000000 209.000000000000000 42.078632354736328
399.000000000000000 209.000000000000000 41.638687133789062
400.000000000000000 209.000000000000000 41.081439971923828
401.000000000000000 209.000000000000000 41.006778717041016
402.000000000000000 209.000000000000000 40.935432434082031
403.000000000000000 209.000000000000000 39.943363189697266
404.000000000000000 209.000000000000000 40.227340698242188
405.000000000000000 209.000000000000000 39.946956634521484
406.000000000000000 209.000000000000000 40.919963836669922
407.000000000000000 209.000000000000000 39.766342163085938
408.000000000000000 209.000000000000000 40.131050109863281
409.000000000000000 209.000000000000000 38.483871459960938
410.000000000000000 209.000000000000000 38.465938568115234
411.000000000000000 209.000000000000000 36.074359893798828
122.000000000000000 210.000000000000000 49.767578125000000
123.000000000000000 210.000000000000000 50.516082763671875
124.000000000000000 210.000000000000000 50.343070983886719
125.000000000000000 210.000000000000000 50.335273742675781
126.000000000000000 210.000000000000000 50.785808563232422
127.000000000000000 210.000000000000000 51.397418975830078
128.000000000000000 210.000000000000000 51.543552398681641
129.000000000000000 210.000000000000000 52.431434631347656
130.000000000000000 210.000000000000000 52.950115203857422
131.000000000000000 210.000000000000000 53.307327270507812
132.000000000000000 210.000000000000000 52.846885681152344
133.000000000000000 210.000000000000000 52.850627899169922
134.000000000000000 210.000000000000000 53.481834411621094
135.000000000000000 210.000000000000000 53.979461669921875
136.000000000000000 210.000000000000000 53.807727813720703
137.000000000000000 210.000000000000000 54.122482299804688
138.000000000000000 210.000000000000000 54.529720306396484
139.000000000000000 210.000000000000000 54.724544525146484
140.000000000000000 210.000000000000000 54.669551849365234
141.000000000000000 210.000000000000000 54.674404144287109
142.000000000000000 210.000000000000000 55.112991333007812
143.000000000000000 210.000000000000000 55.053157806396484
144.000000000000000 210.000000000000000 55.204948425292969
145.000000000000000 210.000000000000000 54.781734466552734
146.000000000000000 210.000000000000000 55.187568664550781
147.000000000000000 210.000000000000000 55.505718231201172
148.000000000000000 210.000000000000000 55.702129364013672
149.000000000000000 210.000000000000000 55.790569305419922
150.000000000000000 210.000000000000000 55.611499786376953
151.000000000000000 210.000000000000000 55.372684478759766
152.000000000000000 210.000000000000000 55.551441192626953
153.000000000000000 210.000000000000000 55.647933959960938
154.000000000000000 210.000000000000000 54.828018188476562
155.000000000000000 210.000000000000000 54.625312805175781
156.000000000000000 210.000000000000000 54.408115386962891
157.000000000000000 210.000000000000000 55.224063873291016
158.000000000000000 210.000000000000000 54.940258026123047
159.000000000000000 210.000000000000000 55.163311004638672
160.000000000000000 210.000000000000000 55.000633239746094
161.000000000000000 210.000000000000000 55.037162780761719
162.000000000000000 210.000000000000000 54.419345855712891
163.000000000000000 210.000000000000000 54.243301391601562
164.000000000000000 210.000000000000000 54.246177673339844
165.000000000000000 210.000000000000000 54.249626159667969
166.000000000000000 210.000000000000000 54.115352630615234
167.000000000000000 210.000000000000000 54.037208557128906
168.000000000000000 210.000000000000000 53.810344696044922
169.000000000000000 210.000000000000000 53.481529235839844
170.000000000000000 210.000000000000000 53.027160644531250
171.000000000000000 210.000000000000000 53.115570068359375
172.000000000000000 210.000000000000000 53.241870880126953
173.000000000000000 210.000000000000000 52.875442504882812
174.000000000000000 210.000000000000000 52.500267028808594
175.000000000000000 210.000000000000000 52.389194488525391
176.000000000000000 210.000000000000000 52.229560852050781
177.000000000000000 210.000000000000000 51.895656585693359
178.000000000000000 210.000000000000000 50.940307617187500
179.000000000000000 210.000000000000000 50.752880096435547
180.000000000000000 210.000000000000000 49.894031524658203
181.000000000000000 210.000000000000000 49.368556976318359
182.000000000000000 210.000000000000000 48.317623138427734
183.000000000000000 210.000000000000000 48.277191162109375
184.000000000000000 210.000000000000000 46.691463470458984
185.000000000000000 210.000000000000000 44.082046508789062
186.000000000000000 210.000000000000000 40.042842864990234
187.000000000000000 210.000000000000000 34.020866394042969
188.000000000000000 210.000000000000000 24.795032501220703
189.000000000000000 210.000000000000000 9.799577713012695
307.000000000000000 210.000000000000000 49.074390411376953
308.000000000000000 210.000000000000000 43.531070709228516
309.000000000000000 210.000000000000000 41.118167877197266
310.000000000000000 210.000000000000000 39.380142211914062
311.000000000000000 210.000000000000000 39.481899261474609
312.000000000000000 210.000000000000000 39.511882781982422
313.000000000000000 210.000000000000000 39.928035736083984
314.000000000000000 210.000000000000000 40.016677856445312
315.000000000000000 210.000000000000000 40.684154510498047
316.000000000000000 210.000000000000000 40.815235137939453
317.000000000000000 210.000000000000000 41.185359954833984
318.000000000000000 210.000000000000000 40.865966796875000
319.000000000000000 210.000000000000000 41.308616638183594
320.000000000000000 210.000000000000000 41.589729309082031
321.000000000000000 210.000000000000000 41.577617645263672
322.000000000000000 210.000000000000000 41.164157867431641
323.000000000000000 210.000000000000000 42.173500061035156
324.000000000000000 210.000000000000000 41.941780090332031
325.000000000000000 210.000000000000000 42.879070281982422
326.000000000000000 210.000000000000000 42.565879821777344
327.000000000000000 210.000000000000000 42.874797821044922
328.000000000000000 210.000000000000000 43.142761230468750
329.000000000000000 210.000000000000000 42.951877593994141
330.000000000000000 210.000000000000000 43.378158569335938
331.000000000000000 210.000000000000000 43.089504241943359
332.000000000000000 210.000000000000000 43.580566406250000
333.000000000000000 210.000000000000000 44.668582916259766
334.000000000000000 210.000000000000000 44.360946655273438
335.000000000000000 210.000000000000000 44.961616516113281
336.000000000000000 210.000000000000000 44.407867431640625
337.000000000000000 210.000000000000000 45.554527282714844
338.000000000000000 210.000000000000000 44.950321197509766
339.000000000000000 210.000000000000000 46.148197174072266
340.000000000000000 210.000000000000000 45.803829193115234
341.000000000000000 210.000000000000000 45.922481536865234
342.000000000000000 210.000000000000000 45.842674255371094
343.000000000000000 210.000000000000000 46.360900878906250
344.000000000000000 210.000000000000000 46.017616271972656
345.000000000000000 210.000000000000000 45.742073059082031
346.000000000000000 210.000000000000000 46.313373565673828
347.000000000000000 210.000000000000000 46.409500122070312
348.000000000000000 210.000000000000000 46.704616546630859
349.000000000000000 210.000000000000000 47.093414306640625
350.000000000000000 210.000000000000000 47.475196838378906
351.000000000000000 210.000000000000000 47.519683837890625
352.000000000000000 210.000000000000000 47.328243255615234
353.000000000000000 210.000000000000000 47.261470794677734
354.000000000000000 210.000000000000000 46.233722686767578
355.000000000000000 210.000000000000000 47.291725158691406
356.000000000000000 210.000000000000000 46.748687744140625
357.000000000000000 210.000000000000000 47.642238616943359
358.000000000000000 210.000000000000000 47.128314971923828
359.000000000000000 210.000000000000000 47.775405883789062
360.000000000000000 210.000000000000000 47.253700256347656
361.000000000000000 210.000000000000000 47.907447814941406
362.000000000000000 210.000000000000000 47.787025451660156
363.000000000000000 210.000000000000000 47.338268280029297
364.000000000000000 210.000000000000000 47.523727416992188
365.000000000000000 210.000000000000000 47.067138671875000
366.000000000000000 210.000000000000000 47.254768371582031
367.000000000000000 210.000000000000000 47.048786163330078
368.000000000000000 210.000000000000000 46.941448211669922
369.000000000000000 210.000000000000000 46.867641448974609
370.000000000000000 210.000000000000000 46.935394287109375
371.000000000000000 210.000000000000000 46.891178131103516
372.000000000000000 210.000000000000000 46.523132324218750
373.000000000000000 210.000000000000000 46.707965850830078
374.000000000000000 210.000000000000000 46.297607421875000
375.000000000000000 210.000000000000000 46.273872375488281
376.000000000000000 210.000000000000000 46.222549438476562
377.000000000000000 210.000000000000000 46.338012695312500
378.000000000000000 210.000000000000000 45.866115570068359
379.000000000000000 210.000000000000000 45.468086242675781
380.000000000000000 210.000000000000000 45.198440551757812
381.000000000000000 210.000000000000000 44.723388671875000
382.000000000000000 210.000000000000000 44.185024261474609
383.000000000000000 210.000000000000000 43.736682891845703
384.000000000000000 210.000000000000000 43.460178375244141
385.000000000000000 210.000000000000000 42.918033599853516
386.000000000000000 210.000000000000000 42.835071563720703
387.000000000000000 210.000000000000000 42.726238250732422
388.000000000000000 210.000000000000000 42.703357696533203
389.000000000000000 210.000000000000000 42.298454284667969
390.000000000000000 210.000000000000000 42.722217559814453
391.000000000000000 210.000000000000000 43.262737274169922
392.000000000000000 210.000000000000000 44.227657318115234
393.000000000000000 210.000000000000000 44.071712493896484
394.000000000000000 210.000000000000000 44.039402008056641
395.000000000000000 210.000000000000000 43.295116424560547
396.000000000000000 210.000000000000000 43.260616302490234
397.000000000000000 210.000000000000000 42.841854095458984
398.000000000000000 210.000000000000000 42.242973327636719
399.000000000000000 210.000000000000000 41.545673370361328
400.000000000000000 210.000000000000000 41.459419250488281
401.000000000000000 210.000000000000000 41.409446716308594
402.000000000000000 210.000000000000000 41.590579986572266
403.000000000000000 210.000000000000000 40.942367553710938
404.000000000000000 210.000000000000000 41.068588256835938
405.000000000000000 210.000000000000000 40.768966674804688
406.000000000000000 210.000000000000000 40.740161895751953
407.000000000000000 210.000000000000000 40.317161560058594
408.000000000000000 210.000000000000000 40.088005065917969
409.000000000000000 210.000000000000000 38.303504943847656
410.000000000000000 210.000000000000000 40.150310516357422
411.000000000000000 210.000000000000000 38.442169189453125
123.000000000000000 211.000000000000000 49.721038818359375
124.000000000000000 211.000000000000000 50.101818084716797
125.000000000000000 211.000000000000000 49.960914611816406
126.000000000000000 211.000000000000000 50.075553894042969
127.000000000000000 211.000000000000000 50.868602752685547
128.000000000000000 211.000000000000000 51.537654876708984
129.000000000000000 211.000000000000000 52.268375396728516
130.000000000000000 211.000000000000000 52.554702758789062
131.000000000000000 211.000000000000000 53.047954559326172
132.000000000000000 211.000000000000000 52.526195526123047
133.000000000000000 211.000000000000000 52.474121093750000
134.000000000000000 211.000000000000000 52.695602416992188
135.000000000000000 211.000000000000000 53.406703948974609
136.000000000000000 211.000000000000000 53.711551666259766
137.000000000000000 211.000000000000000 53.945186614990234
138.000000000000000 211.000000000000000 53.939186096191406
139.000000000000000 211.000000000000000 54.352416992187500
140.000000000000000 211.000000000000000 54.646850585937500
141.000000000000000 211.000000000000000 54.690151214599609
142.000000000000000 211.000000000000000 54.463096618652344
143.000000000000000 211.000000000000000 54.716106414794922
144.000000000000000 211.000000000000000 54.775798797607422
145.000000000000000 211.000000000000000 54.588710784912109
146.000000000000000 211.000000000000000 54.719486236572266
147.000000000000000 211.000000000000000 55.076557159423828
148.000000000000000 211.000000000000000 55.220718383789062
149.000000000000000 211.000000000000000 55.322628021240234
150.000000000000000 211.000000000000000 55.083530426025391
151.000000000000000 211.000000000000000 55.313915252685547
152.000000000000000 211.000000000000000 54.919616699218750
153.000000000000000 211.000000000000000 54.876045227050781
154.000000000000000 211.000000000000000 54.438110351562500
155.000000000000000 211.000000000000000 54.271507263183594
156.000000000000000 211.000000000000000 54.228725433349609
157.000000000000000 211.000000000000000 54.466175079345703
158.000000000000000 211.000000000000000 54.941699981689453
159.000000000000000 211.000000000000000 54.833377838134766
160.000000000000000 211.000000000000000 54.790706634521484
161.000000000000000 211.000000000000000 54.327148437500000
162.000000000000000 211.000000000000000 54.209671020507812
163.000000000000000 211.000000000000000 53.974674224853516
164.000000000000000 211.000000000000000 54.182006835937500
165.000000000000000 211.000000000000000 53.882568359375000
166.000000000000000 211.000000000000000 54.348396301269531
167.000000000000000 211.000000000000000 53.863224029541016
168.000000000000000 211.000000000000000 53.739944458007812
169.000000000000000 211.000000000000000 53.233505249023438
170.000000000000000 211.000000000000000 53.015331268310547
171.000000000000000 211.000000000000000 52.680171966552734
172.000000000000000 211.000000000000000 52.840629577636719
173.000000000000000 211.000000000000000 52.634902954101562
174.000000000000000 211.000000000000000 52.529586791992188
175.000000000000000 211.000000000000000 52.144207000732422
176.000000000000000 211.000000000000000 51.802185058593750
177.000000000000000 211.000000000000000 51.679164886474609
178.000000000000000 211.000000000000000 50.655364990234375
179.000000000000000 211.000000000000000 50.568389892578125
180.000000000000000 211.000000000000000 49.678558349609375
181.000000000000000 211.000000000000000 49.104347229003906
182.000000000000000 211.000000000000000 48.189800262451172
183.000000000000000 211.000000000000000 47.718364715576172
184.000000000000000 211.000000000000000 44.820243835449219
185.000000000000000 211.000000000000000 40.041313171386719
186.000000000000000 211.000000000000000 30.250036239624023
187.000000000000000 211.000000000000000 18.049224853515625
307.000000000000000 211.000000000000000 48.176601409912109
308.000000000000000 211.000000000000000 40.929607391357422
309.000000000000000 211.000000000000000 39.292663574218750
310.000000000000000 211.000000000000000 38.976417541503906
311.000000000000000 211.000000000000000 39.208789825439453
312.000000000000000 211.000000000000000 38.949859619140625
313.000000000000000 211.000000000000000 39.826786041259766
314.000000000000000 211.000000000000000 39.585166931152344
315.000000000000000 211.000000000000000 40.213043212890625
316.000000000000000 211.000000000000000 40.350330352783203
317.000000000000000 211.000000000000000 41.118549346923828
318.000000000000000 211.000000000000000 40.574996948242188
319.000000000000000 211.000000000000000 40.836898803710938
320.000000000000000 211.000000000000000 41.043434143066406
321.000000000000000 211.000000000000000 41.408443450927734
322.000000000000000 211.000000000000000 41.547019958496094
323.000000000000000 211.000000000000000 42.153411865234375
324.000000000000000 211.000000000000000 42.605533599853516
325.000000000000000 211.000000000000000 41.904148101806641
326.000000000000000 211.000000000000000 43.028263092041016
327.000000000000000 211.000000000000000 42.793437957763672
328.000000000000000 211.000000000000000 42.840316772460938
329.000000000000000 211.000000000000000 42.977172851562500
330.000000000000000 211.000000000000000 43.239639282226562
331.000000000000000 211.000000000000000 43.074314117431641
332.000000000000000 211.000000000000000 43.959075927734375
333.000000000000000 211.000000000000000 44.603687286376953
334.000000000000000 211.000000000000000 44.834396362304688
335.000000000000000 211.000000000000000 44.741970062255859
336.000000000000000 211.000000000000000 45.051471710205078
337.000000000000000 211.000000000000000 45.401058197021484
338.000000000000000 211.000000000000000 45.811946868896484
339.000000000000000 211.000000000000000 45.869064331054688
340.000000000000000 211.000000000000000 45.825092315673828
341.000000000000000 211.000000000000000 45.875850677490234
342.000000000000000 211.000000000000000 45.735546112060547
343.000000000000000 211.000000000000000 46.292602539062500
344.000000000000000 211.000000000000000 45.711803436279297
345.000000000000000 211.000000000000000 45.542350769042969
346.000000000000000 211.000000000000000 45.583133697509766
347.000000000000000 211.000000000000000 46.020072937011719
348.000000000000000 211.000000000000000 46.471508026123047
349.000000000000000 211.000000000000000 46.710754394531250
350.000000000000000 211.000000000000000 47.323223114013672
351.000000000000000 211.000000000000000 46.944324493408203
352.000000000000000 211.000000000000000 47.312961578369141
353.000000000000000 211.000000000000000 47.200614929199219
354.000000000000000 211.000000000000000 47.351657867431641
355.000000000000000 211.000000000000000 46.946441650390625
356.000000000000000 211.000000000000000 47.354564666748047
357.000000000000000 211.000000000000000 47.441864013671875
358.000000000000000 211.000000000000000 47.605289459228516
359.000000000000000 211.000000000000000 47.392368316650391
360.000000000000000 211.000000000000000 47.964038848876953
361.000000000000000 211.000000000000000 48.016620635986328
362.000000000000000 211.000000000000000 47.683349609375000
363.000000000000000 211.000000000000000 47.291339874267578
364.000000000000000 211.000000000000000 47.212966918945312
365.000000000000000 211.000000000000000 47.388446807861328
366.000000000000000 211.000000000000000 47.179283142089844
367.000000000000000 211.000000000000000 47.155086517333984
368.000000000000000 211.000000000000000 46.539108276367188
369.000000000000000 211.000000000000000 47.053016662597656
370.000000000000000 211.000000000000000 46.689075469970703
371.000000000000000 211.000000000000000 46.950023651123047
372.000000000000000 211.000000000000000 46.645534515380859
373.000000000000000 211.000000000000000 46.871753692626953
374.000000000000000 211.000000000000000 46.196876525878906
375.000000000000000 211.000000000000000 45.961738586425781
376.000000000000000 211.000000000000000 45.959671020507812
377.000000000000000 211.000000000000000 46.172866821289062
378.000000000000000 211.000000000000000 45.851451873779297
379.000000000000000 211.000000000000000 45.064388275146484
380.000000000000000 211.000000000000000 45.231079101562500
381.000000000000000 211.000000000000000 44.509899139404297
382.000000000000000 211.000000000000000 44.400794982910156
383.000000000000000 211.000000000000000 43.585651397705078
384.000000000000000 211.000000000000000 43.468536376953125
385.000000000000000 211.000000000000000 42.781513214111328
386.000000000000000 211.000000000000000 42.868583679199219
387.000000000000000 211.000000000000000 42.756664276123047
388.000000000000000 211.000000000000000 43.037364959716797
389.000000000000000 211.000000000000000 41.867443084716797
390.000000000000000 211.000000000000000 43.056934356689453
391.000000000000000 211.000000000000000 43.262763977050781
392.000000000000000 211.000000000000000 44.241970062255859
393.000000000000000 211.000000000000000 43.876327514648438
394.000000000000000 211.000000000000000 44.074878692626953
395.000000000000000 211.000000000000000 43.439815521240234
396.000000000000000 211.000000000000000 43.721721649169922
397.000000000000000 211.000000000000000 42.993602752685547
398.000000000000000 211.000000000000000 42.402538299560547
399.000000000000000 211.000000000000000 41.384815216064453
400.000000000000000 211.000000000000000 41.550827026367188
401.000000000000000 211.000000000000000 41.476924896240234
402.000000000000000 211.000000000000000 41.461429595947266
403.000000000000000 211.000000000000000 40.711673736572266
404.000000000000000 211.000000000000000 41.177017211914062
405.000000000000000 211.000000000000000 40.641124725341797
406.000000000000000 211.000000000000000 40.440513610839844
407.000000000000000 211.000000000000000 39.558441162109375
408.000000000000000 211.000000000000000 39.647666931152344
409.000000000000000 211.000000000000000 38.899894714355469
410.000000000000000 211.000000000000000 41.008861541748047
123.000000000000000 212.000000000000000 46.643619537353516
124.000000000000000 212.000000000000000 49.616840362548828
125.000000000000000 212.000000000000000 49.726104736328125
126.000000000000000 212.000000000000000 49.493427276611328
127.000000000000000 212.000000000000000 49.944766998291016
128.000000000000000 212.000000000000000 50.923831939697266
129.000000000000000 212.000000000000000 51.807655334472656
130.000000000000000 212.000000000000000 52.132202148437500
131.000000000000000 212.000000000000000 52.318752288818359
132.000000000000000 212.000000000000000 52.350185394287109
133.000000000000000 212.000000000000000 52.347755432128906
134.000000000000000 212.000000000000000 52.531135559082031
135.000000000000000 212.000000000000000 52.933483123779297
136.000000000000000 212.000000000000000 53.649349212646484
137.000000000000000 212.000000000000000 53.900527954101562
138.000000000000000 212.000000000000000 53.682720184326172
139.000000000000000 212.000000000000000 53.357757568359375
140.000000000000000 212.000000000000000 54.021556854248047
141.000000000000000 212.000000000000000 54.368640899658203
142.000000000000000 212.000000000000000 54.365367889404297
143.000000000000000 212.000000000000000 54.037372589111328
144.000000000000000 212.000000000000000 54.368270874023438
145.000000000000000 212.000000000000000 54.513664245605469
146.000000000000000 212.000000000000000 54.854175567626953
147.000000000000000 212.000000000000000 55.005615234375000
148.000000000000000 212.000000000000000 55.360530853271484
149.000000000000000 212.000000000000000 55.248134613037109
150.000000000000000 212.000000000000000 55.539329528808594
151.000000000000000 212.000000000000000 55.560382843017578
152.000000000000000 212.000000000000000 55.248359680175781
153.000000000000000 212.000000000000000 55.138362884521484
154.000000000000000 212.000000000000000 54.893268585205078
155.000000000000000 212.000000000000000 55.061332702636719
156.000000000000000 212.000000000000000 54.017921447753906
157.000000000000000 212.000000000000000 54.222427368164062
158.000000000000000 212.000000000000000 54.043842315673828
159.000000000000000 212.000000000000000 54.688423156738281
160.000000000000000 212.000000000000000 54.245906829833984
161.000000000000000 212.000000000000000 54.188358306884766
162.000000000000000 212.000000000000000 53.673282623291016
163.000000000000000 212.000000000000000 53.910797119140625
164.000000000000000 212.000000000000000 53.694240570068359
165.000000000000000 212.000000000000000 53.869434356689453
166.000000000000000 212.000000000000000 53.763797760009766
167.000000000000000 212.000000000000000 53.825584411621094
168.000000000000000 212.000000000000000 53.279888153076172
169.000000000000000 212.000000000000000 53.153560638427734
170.000000000000000 212.000000000000000 52.427780151367188
171.000000000000000 212.000000000000000 52.461677551269531
172.000000000000000 212.000000000000000 52.332012176513672
173.000000000000000 212.000000000000000 52.152839660644531
174.000000000000000 212.000000000000000 51.839115142822266
175.000000000000000 212.000000000000000 51.537689208984375
176.000000000000000 212.000000000000000 51.342720031738281
177.000000000000000 212.000000000000000 51.198329925537109
178.000000000000000 212.000000000000000 50.422187805175781
179.000000000000000 212.000000000000000 50.058357238769531
180.000000000000000 212.000000000000000 49.174465179443359
181.000000000000000 212.000000000000000 48.153850555419922
182.000000000000000 212.000000000000000 47.140491485595703
183.000000000000000 212.000000000000000 44.567367553710938
184.000000000000000 212.000000000000000 39.310390472412109
185.000000000000000 212.000000000000000 26.281734466552734
186.000000000000000 212.000000000000000 10.259692192077637
307.000000000000000 212.000000000000000 46.634346008300781
