ply
format ascii 1.0
element vertex 825
property double x
property double y
property double z
end_header
299.000000000000000 14.000000000000000 40.108608245849609
300.000000000000000 14.000000000000000 39.759269714355469
301.000000000000000 14.000000000000000 38.674816131591797
302.000000000000000 14.000000000000000 39.430126190185547
303.000000000000000 14.000000000000000 40.657535552978516
304.000000000000000 14.000000000000000 39.328063964843750
305.000000000000000 14.000000000000000 39.378746032714844
306.000000000000000 14.000000000000000 37.908592224121094
307.000000000000000 14.000000000000000 38.125396728515625
308.000000000000000 14.000000000000000 38.800712585449219
309.000000000000000 14.000000000000000 39.638587951660156
310.000000000000000 14.000000000000000 38.767936706542969
311.000000000000000 14.000000000000000 38.818675994873047
312.000000000000000 14.000000000000000 38.198299407958984
313.000000000000000 14.000000000000000 38.579322814941406
314.000000000000000 14.000000000000000 37.658012390136719
315.000000000000000 14.000000000000000 38.495571136474609
316.000000000000000 14.000000000000000 38.635894775390625
317.000000000000000 14.000000000000000 36.523517608642578
318.000000000000000 14.000000000000000 35.996246337890625
319.000000000000000 14.000000000000000 34.532070159912109
320.000000000000000 14.000000000000000 35.744911193847656
321.000000000000000 14.000000000000000 34.877323150634766
322.000000000000000 14.000000000000000 33.320247650146484
323.000000000000000 14.000000000000000 33.548587799072266
324.000000000000000 14.000000000000000 32.746288299560547
325.000000000000000 14.000000000000000 31.416679382324219
326.000000000000000 14.000000000000000 31.663150787353516
327.000000000000000 14.000000000000000 29.955570220947266
328.000000000000000 14.000000000000000 31.682413101196289
329.000000000000000 14.000000000000000 30.106092453002930
330.000000000000000 14.000000000000000 29.971342086791992
331.000000000000000 14.000000000000000 28.331558227539062
332.000000000000000 14.000000000000000 26.803678512573242
333.000000000000000 14.000000000000000 26.624149322509766
334.000000000000000 14.000000000000000 24.368137359619141
335.000000000000000 14.000000000000000 24.697546005249023
336.000000000000000 14.000000000000000 23.788160324096680
337.000000000000000 14.000000000000000 23.487230300903320
338.000000000000000 14.000000000000000 21.710584640502930
339.000000000000000 14.000000000000000 20.945137023925781
340.000000000000000 14.000000000000000 19.527269363403320
341.000000000000000 14.000000000000000 13.615942001342773
197.000000000000000 15.000000000000000 47.653469085693359
198.000000000000000 15.000000000000000 49.237331390380859
199.000000000000000 15.000000000000000 48.352664947509766
200.000000000000000 15.000000000000000 49.128959655761719
201.000000000000000 15.000000000000000 50.350124359130859
202.000000000000000 15.000000000000000 52.860897064208984
203.000000000000000 15.000000000000000 50.679500579833984
204.000000000000000 15.000000000000000 52.351474761962891
205.000000000000000 15.000000000000000 52.361648559570312
206.000000000000000 15.000000000000000 53.465381622314453
207.000000000000000 15.000000000000000 53.528701782226562
208.000000000000000 15.000000000000000 53.866241455078125
209.000000000000000 15.000000000000000 53.833629608154297
210.000000000000000 15.000000000000000 54.133777618408203
211.000000000000000 15.000000000000000 54.614036560058594
212.000000000000000 15.000000000000000 54.825363159179688
213.000000000000000 15.000000000000000 55.374790191650391
214.000000000000000 15.000000000000000 55.340953826904297
215.000000000000000 15.000000000000000 55.981998443603516
216.000000000000000 15.000000000000000 55.792179107666016
217.000000000000000 15.000000000000000 56.769264221191406
218.000000000000000 15.000000000000000 56.662818908691406
219.000000000000000 15.000000000000000 57.774066925048828
220.000000000000000 15.000000000000000 57.157226562500000
221.000000000000000 15.000000000000000 57.184165954589844
222.000000000000000 15.000000000000000 57.650123596191406
223.000000000000000 15.000000000000000 57.932300567626953
224.000000000000000 15.000000000000000 57.900253295898438
225.000000000000000 15.000000000000000 58.251434326171875
226.000000000000000 15.000000000000000 58.083118438720703
227.000000000000000 15.000000000000000 58.436309814453125
228.000000000000000 15.000000000000000 58.216251373291016
229.000000000000000 15.000000000000000 58.721515655517578
230.000000000000000 15.000000000000000 58.220893859863281
231.000000000000000 15.000000000000000 58.395568847656250
232.000000000000000 15.000000000000000 58.267288208007812
233.000000000000000 15.000000000000000 58.936309814453125
234.000000000000000 15.000000000000000 58.781253814697266
235.000000000000000 15.000000000000000 59.235973358154297
236.000000000000000 15.000000000000000 58.784126281738281
237.000000000000000 15.000000000000000 59.562389373779297
238.000000000000000 15.000000000000000 58.859554290771484
239.000000000000000 15.000000000000000 59.389678955078125
240.000000000000000 15.000000000000000 58.940635681152344
241.000000000000000 15.000000000000000 58.894790649414062
242.000000000000000 15.000000000000000 60.139770507812500
243.000000000000000 15.000000000000000 60.092609405517578
244.000000000000000 15.000000000000000 60.530265808105469
245.000000000000000 15.000000000000000 59.897109985351562
246.000000000000000 15.000000000000000 59.027687072753906
247.000000000000000 15.000000000000000 59.889209747314453
248.000000000000000 15.000000000000000 59.267002105712891
249.000000000000000 15.000000000000000 59.730854034423828
250.000000000000000 15.000000000000000 60.178604125976562
251.000000000000000 15.000000000000000 60.218795776367188
252.000000000000000 15.000000000000000 59.850196838378906
253.000000000000000 15.000000000000000 60.089534759521484
254.000000000000000 15.000000000000000 59.606803894042969
255.000000000000000 15.000000000000000 59.464839935302734
256.000000000000000 15.000000000000000 58.715633392333984
257.000000000000000 15.000000000000000 58.851188659667969
258.000000000000000 15.000000000000000 57.844589233398438
259.000000000000000 15.000000000000000 58.877342224121094
260.000000000000000 15.000000000000000 57.669006347656250
261.000000000000000 15.000000000000000 56.779491424560547
262.000000000000000 15.000000000000000 58.398525238037109
263.000000000000000 15.000000000000000 58.337860107421875
264.000000000000000 15.000000000000000 59.095939636230469
265.000000000000000 15.000000000000000 57.676998138427734
266.000000000000000 15.000000000000000 58.113166809082031
267.000000000000000 15.000000000000000 58.090614318847656
268.000000000000000 15.000000000000000 59.364799499511719
269.000000000000000 15.000000000000000 59.197067260742188
270.000000000000000 15.000000000000000 59.958610534667969
271.000000000000000 15.000000000000000 58.442020416259766
272.000000000000000 15.000000000000000 56.808330535888672
273.000000000000000 15.000000000000000 56.125526428222656
274.000000000000000 15.000000000000000 55.123836517333984
275.000000000000000 15.000000000000000 54.808353424072266
276.000000000000000 15.000000000000000 54.791820526123047
277.000000000000000 15.000000000000000 56.949768066406250
278.000000000000000 15.000000000000000 56.290260314941406
279.000000000000000 15.000000000000000 55.912605285644531
280.000000000000000 15.000000000000000 54.421833038330078
281.000000000000000 15.000000000000000 52.766994476318359
282.000000000000000 15.000000000000000 54.190692901611328
283.000000000000000 15.000000000000000 52.634162902832031
284.000000000000000 15.000000000000000 53.414730072021484
285.000000000000000 15.000000000000000 52.248901367187500
286.000000000000000 15.000000000000000 52.240634918212891
287.000000000000000 15.000000000000000 51.467208862304688
288.000000000000000 15.000000000000000 51.838813781738281
289.000000000000000 15.000000000000000 49.946472167968750
290.000000000000000 15.000000000000000 49.421325683593750
291.000000000000000 15.000000000000000 48.946063995361328
292.000000000000000 15.000000000000000 48.467639923095703
293.000000000000000 15.000000000000000 48.637889862060547
294.000000000000000 15.000000000000000 47.010601043701172
295.000000000000000 15.000000000000000 47.169994354248047
296.000000000000000 15.000000000000000 45.151363372802734
297.000000000000000 15.000000000000000 43.051139831542969
298.000000000000000 15.000000000000000 41.985610961914062
299.000000000000000 15.000000000000000 40.894603729248047
300.000000000000000 15.000000000000000 39.737701416015625
301.000000000000000 15.000000000000000 38.655693054199219
302.000000000000000 15.000000000000000 39.107303619384766
303.000000000000000 15.000000000000000 40.076515197753906
304.000000000000000 15.000000000000000 39.016693115234375
305.000000000000000 15.000000000000000 39.654804229736328
306.000000000000000 15.000000000000000 39.548652648925781
307.000000000000000 15.000000000000000 39.577560424804688
308.000000000000000 15.000000000000000 38.561878204345703
309.000000000000000 15.000000000000000 38.612236022949219
310.000000000000000 15.000000000000000 39.750503540039062
311.000000000000000 15.000000000000000 37.541973114013672
312.000000000000000 15.000000000000000 38.240432739257812
313.000000000000000 15.000000000000000 38.466674804687500
314.000000000000000 15.000000000000000 39.000667572021484
315.000000000000000 15.000000000000000 37.548660278320312
316.000000000000000 15.000000000000000 38.532836914062500
317.000000000000000 15.000000000000000 37.316390991210938
318.000000000000000 15.000000000000000 36.751983642578125
319.000000000000000 15.000000000000000 36.177097320556641
320.000000000000000 15.000000000000000 34.749778747558594
321.000000000000000 15.000000000000000 36.025825500488281
322.000000000000000 15.000000000000000 34.415809631347656
323.000000000000000 15.000000000000000 32.694076538085938
324.000000000000000 15.000000000000000 34.673389434814453
325.000000000000000 15.000000000000000 31.319360733032227
326.000000000000000 15.000000000000000 30.614353179931641
327.000000000000000 15.000000000000000 30.015125274658203
328.000000000000000 15.000000000000000 30.677848815917969
329.000000000000000 15.000000000000000 29.647356033325195
330.000000000000000 15.000000000000000 28.943347930908203
331.000000000000000 15.000000000000000 28.394445419311523
332.000000000000000 15.000000000000000 26.135110855102539
333.000000000000000 15.000000000000000 26.322772979736328
334.000000000000000 15.000000000000000 24.929006576538086
335.000000000000000 15.000000000000000 24.233001708984375
336.000000000000000 15.000000000000000 23.279024124145508
337.000000000000000 15.000000000000000 21.417219161987305
338.000000000000000 15.000000000000000 21.375503540039062
339.000000000000000 15.000000000000000 21.566442489624023
340.000000000000000 15.000000000000000 18.759441375732422
341.000000000000000 15.000000000000000 16.240566253662109
197.000000000000000 16.000000000000000 46.603408813476562
198.000000000000000 16.000000000000000 50.615295410156250
199.000000000000000 16.000000000000000 49.528907775878906
200.000000000000000 16.000000000000000 48.901996612548828
201.000000000000000 16.000000000000000 49.094738006591797
202.000000000000000 16.000000000000000 51.342575073242188
203.000000000000000 16.000000000000000 52.128498077392578
204.000000000000000 16.000000000000000 53.027294158935547
205.000000000000000 16.000000000000000 52.548583984375000
206.000000000000000 16.000000000000000 53.763988494873047
207.000000000000000 16.000000000000000 53.752124786376953
208.000000000000000 16.000000000000000 54.081012725830078
209.000000000000000 16.000000000000000 54.398193359375000
210.000000000000000 16.000000000000000 54.464382171630859
211.000000000000000 16.000000000000000 55.332542419433594
212.000000000000000 16.000000000000000 55.230079650878906
213.000000000000000 16.000000000000000 55.906913757324219
214.000000000000000 16.000000000000000 55.913009643554688
215.000000000000000 16.000000000000000 56.275669097900391
216.000000000000000 16.000000000000000 56.116294860839844
217.000000000000000 16.000000000000000 56.725128173828125
218.000000000000000 16.000000000000000 56.907871246337891
219.000000000000000 16.000000000000000 57.617469787597656
220.000000000000000 16.000000000000000 57.548526763916016
221.000000000000000 16.000000000000000 58.331855773925781
222.000000000000000 16.000000000000000 58.430393218994141
223.000000000000000 16.000000000000000 58.496170043945312
224.000000000000000 16.000000000000000 58.564338684082031
225.000000000000000 16.000000000000000 58.339847564697266
226.000000000000000 16.000000000000000 58.141849517822266
227.000000000000000 16.000000000000000 58.420410156250000
228.000000000000000 16.000000000000000 58.301898956298828
229.000000000000000 16.000000000000000 58.790950775146484
230.000000000000000 16.000000000000000 58.505001068115234
231.000000000000000 16.000000000000000 58.886642456054688
232.000000000000000 16.000000000000000 58.663810729980469
233.000000000000000 16.000000000000000 59.257411956787109
234.000000000000000 16.000000000000000 58.923637390136719
235.000000000000000 16.000000000000000 59.060470581054688
236.000000000000000 16.000000000000000 59.262264251708984
237.000000000000000 16.000000000000000 59.363952636718750
238.000000000000000 16.000000000000000 58.800849914550781
239.000000000000000 16.000000000000000 59.027614593505859
240.000000000000000 16.000000000000000 59.116878509521484
241.000000000000000 16.000000000000000 59.745822906494141
242.000000000000000 16.000000000000000 60.572475433349609
243.000000000000000 16.000000000000000 60.823600769042969
244.000000000000000 16.000000000000000 60.659332275390625
245.000000000000000 16.000000000000000 60.120468139648438
246.000000000000000 16.000000000000000 59.211956024169922
247.000000000000000 16.000000000000000 59.537220001220703
248.000000000000000 16.000000000000000 59.289009094238281
249.000000000000000 16.000000000000000 58.283840179443359
250.000000000000000 16.000000000000000 60.384632110595703
251.000000000000000 16.000000000000000 58.935840606689453
252.000000000000000 16.000000000000000 60.792137145996094
253.000000000000000 16.000000000000000 59.016304016113281
254.000000000000000 16.000000000000000 59.822032928466797
255.000000000000000 16.000000000000000 59.022537231445312
256.000000000000000 16.000000000000000 59.241340637207031
257.000000000000000 16.000000000000000 59.310489654541016
258.000000000000000 16.000000000000000 58.513435363769531
259.000000000000000 16.000000000000000 58.219310760498047
260.000000000000000 16.000000000000000 57.326358795166016
261.000000000000000 16.000000000000000 58.088184356689453
262.000000000000000 16.000000000000000 57.543975830078125
263.000000000000000 16.000000000000000 58.469085693359375
264.000000000000000 16.000000000000000 57.467552185058594
265.000000000000000 16.000000000000000 58.055736541748047
266.000000000000000 16.000000000000000 59.668121337890625
267.000000000000000 16.000000000000000 59.001953125000000
268.000000000000000 16.000000000000000 56.223541259765625
269.000000000000000 16.000000000000000 58.143051147460938
270.000000000000000 16.000000000000000 59.208225250244141
271.000000000000000 16.000000000000000 57.618560791015625
272.000000000000000 16.000000000000000 56.551094055175781
273.000000000000000 16.000000000000000 56.607082366943359
274.000000000000000 16.000000000000000 57.613380432128906
275.000000000000000 16.000000000000000 55.072883605957031
276.000000000000000 16.000000000000000 54.336914062500000
277.000000000000000 16.000000000000000 55.338703155517578
278.000000000000000 16.000000000000000 54.163532257080078
279.000000000000000 16.000000000000000 54.293640136718750
280.000000000000000 16.000000000000000 51.834774017333984
281.000000000000000 16.000000000000000 53.687728881835938
282.000000000000000 16.000000000000000 53.017200469970703
283.000000000000000 16.000000000000000 52.819812774658203
284.000000000000000 16.000000000000000 53.474498748779297
285.000000000000000 16.000000000000000 52.440864562988281
286.000000000000000 16.000000000000000 52.390892028808594
287.000000000000000 16.000000000000000 50.931339263916016
288.000000000000000 16.000000000000000 51.416034698486328
289.000000000000000 16.000000000000000 51.078376770019531
290.000000000000000 16.000000000000000 49.615936279296875
291.000000000000000 16.000000000000000 49.771068572998047
292.000000000000000 16.000000000000000 48.543968200683594
293.000000000000000 16.000000000000000 48.284622192382812
294.000000000000000 16.000000000000000 48.203628540039062
295.000000000000000 16.000000000000000 46.786441802978516
296.000000000000000 16.000000000000000 45.084568023681641
297.000000000000000 16.000000000000000 42.909137725830078
298.000000000000000 16.000000000000000 42.272830963134766
299.000000000000000 16.000000000000000 40.718799591064453
300.000000000000000 16.000000000000000 40.071605682373047
301.000000000000000 16.000000000000000 38.612640380859375
302.000000000000000 16.000000000000000 39.120384216308594
303.000000000000000 16.000000000000000 39.904594421386719
304.000000000000000 16.000000000000000 38.710220336914062
305.000000000000000 16.000000000000000 39.461277008056641
306.000000000000000 16.000000000000000 38.245006561279297
307.000000000000000 16.000000000000000 38.867813110351562
308.000000000000000 16.000000000000000 39.248271942138672
309.000000000000000 16.000000000000000 39.560314178466797
310.000000000000000 16.000000000000000 38.937351226806641
311.000000000000000 16.000000000000000 39.635143280029297
312.000000000000000 16.000000000000000 38.773914337158203
313.000000000000000 16.000000000000000 37.974941253662109
314.000000000000000 16.000000000000000 38.448474884033203
315.000000000000000 16.000000000000000 38.574287414550781
316.000000000000000 16.000000000000000 39.061397552490234
317.000000000000000 16.000000000000000 36.823581695556641
318.000000000000000 16.000000000000000 35.963375091552734
319.000000000000000 16.000000000000000 35.479564666748047
320.000000000000000 16.000000000000000 33.870265960693359
321.000000000000000 16.000000000000000 33.731365203857422
322.000000000000000 16.000000000000000 33.221927642822266
323.000000000000000 16.000000000000000 34.514671325683594
324.000000000000000 16.000000000000000 32.538112640380859
325.000000000000000 16.000000000000000 31.213062286376953
326.000000000000000 16.000000000000000 31.747371673583984
327.000000000000000 16.000000000000000 29.504877090454102
328.000000000000000 16.000000000000000 30.985929489135742
329.000000000000000 16.000000000000000 29.236438751220703
330.000000000000000 16.000000000000000 29.283943176269531
331.000000000000000 16.000000000000000 27.811531066894531
332.000000000000000 16.000000000000000 27.203424453735352
333.000000000000000 16.000000000000000 25.893051147460938
334.000000000000000 16.000000000000000 25.145715713500977
335.000000000000000 16.000000000000000 24.156560897827148
336.000000000000000 16.000000000000000 22.645206451416016
337.000000000000000 16.000000000000000 23.232444763183594
338.000000000000000 16.000000000000000 21.017349243164062
339.000000000000000 16.000000000000000 20.037172317504883
340.000000000000000 16.000000000000000 18.971952438354492
341.000000000000000 16.000000000000000 10.926957130432129
199.000000000000000 17.000000000000000 51.647861480712891
200.000000000000000 17.000000000000000 49.140071868896484
201.000000000000000 17.000000000000000 49.833679199218750
202.000000000000000 17.000000000000000 49.795112609863281
203.000000000000000 17.000000000000000 51.963180541992188
204.000000000000000 17.000000000000000 52.666973114013672
205.000000000000000 17.000000000000000 52.600124359130859
206.000000000000000 17.000000000000000 53.876968383789062
207.000000000000000 17.000000000000000 53.870979309082031
208.000000000000000 17.000000000000000 54.332363128662109
209.000000000000000 17.000000000000000 54.459072113037109
210.000000000000000 17.000000000000000 54.467498779296875
211.000000000000000 17.000000000000000 55.209526062011719
212.000000000000000 17.000000000000000 55.424945831298828
213.000000000000000 17.000000000000000 56.194450378417969
214.000000000000000 17.000000000000000 55.999252319335938
215.000000000000000 17.000000000000000 56.677852630615234
216.000000000000000 17.000000000000000 56.877780914306641
217.000000000000000 17.000000000000000 57.422981262207031
218.000000000000000 17.000000000000000 57.895038604736328
219.000000000000000 17.000000000000000 58.742843627929688
220.000000000000000 17.000000000000000 58.159233093261719
221.000000000000000 17.000000000000000 58.580101013183594
222.000000000000000 17.000000000000000 58.858730316162109
223.000000000000000 17.000000000000000 59.105621337890625
224.000000000000000 17.000000000000000 58.680267333984375
225.000000000000000 17.000000000000000 58.802028656005859
226.000000000000000 17.000000000000000 58.353229522705078
227.000000000000000 17.000000000000000 59.069160461425781
228.000000000000000 17.000000000000000 58.907432556152344
229.000000000000000 17.000000000000000 59.537044525146484
230.000000000000000 17.000000000000000 58.788055419921875
231.000000000000000 17.000000000000000 59.267379760742188
232.000000000000000 17.000000000000000 59.077144622802734
233.000000000000000 17.000000000000000 59.384403228759766
234.000000000000000 17.000000000000000 59.279865264892578
235.000000000000000 17.000000000000000 59.921882629394531
236.000000000000000 17.000000000000000 59.302635192871094
237.000000000000000 17.000000000000000 59.783580780029297
238.000000000000000 17.000000000000000 58.857151031494141
239.000000000000000 17.000000000000000 59.535293579101562
240.000000000000000 17.000000000000000 59.560462951660156
241.000000000000000 17.000000000000000 60.576557159423828
242.000000000000000 17.000000000000000 60.303787231445312
243.000000000000000 17.000000000000000 60.182830810546875
244.000000000000000 17.000000000000000 60.065067291259766
245.000000000000000 17.000000000000000 59.850399017333984
246.000000000000000 17.000000000000000 59.363845825195312
247.000000000000000 17.000000000000000 59.903327941894531
248.000000000000000 17.000000000000000 59.703239440917969
249.000000000000000 17.000000000000000 59.777759552001953
250.000000000000000 17.000000000000000 60.371673583984375
251.000000000000000 17.000000000000000 60.357494354248047
252.000000000000000 17.000000000000000 59.857284545898438
253.000000000000000 17.000000000000000 60.037963867187500
254.000000000000000 17.000000000000000 59.043449401855469
255.000000000000000 17.000000000000000 60.077613830566406
256.000000000000000 17.000000000000000 59.398460388183594
257.000000000000000 17.000000000000000 59.851005554199219
258.000000000000000 17.000000000000000 57.685119628906250
259.000000000000000 17.000000000000000 58.373382568359375
260.000000000000000 17.000000000000000 56.569473266601562
261.000000000000000 17.000000000000000 56.702838897705078
262.000000000000000 17.000000000000000 58.701175689697266
263.000000000000000 17.000000000000000 57.758953094482422
264.000000000000000 17.000000000000000 58.107059478759766
265.000000000000000 17.000000000000000 56.911228179931641
266.000000000000000 17.000000000000000 58.749313354492188
267.000000000000000 17.000000000000000 57.759956359863281
268.000000000000000 17.000000000000000 58.152912139892578
269.000000000000000 17.000000000000000 57.863986968994141
270.000000000000000 17.000000000000000 59.996349334716797
271.000000000000000 17.000000000000000 57.457790374755859
272.000000000000000 17.000000000000000 56.939083099365234
273.000000000000000 17.000000000000000 57.235099792480469
274.000000000000000 17.000000000000000 56.537979125976562
275.000000000000000 17.000000000000000 55.820304870605469
276.000000000000000 17.000000000000000 54.527725219726562
277.000000000000000 17.000000000000000 54.794506072998047
278.000000000000000 17.000000000000000 55.883285522460938
279.000000000000000 17.000000000000000 55.538002014160156
280.000000000000000 17.000000000000000 53.686035156250000
281.000000000000000 17.000000000000000 53.002574920654297
282.000000000000000 17.000000000000000 52.372470855712891
283.000000000000000 17.000000000000000 52.974082946777344
284.000000000000000 17.000000000000000 52.890914916992188
285.000000000000000 17.000000000000000 52.880970001220703
286.000000000000000 17.000000000000000 52.349941253662109
287.000000000000000 17.000000000000000 51.541675567626953
288.000000000000000 17.000000000000000 51.414062500000000
289.000000000000000 17.000000000000000 50.112487792968750
290.000000000000000 17.000000000000000 49.444908142089844
291.000000000000000 17.000000000000000 49.569644927978516
292.000000000000000 17.000000000000000 48.740737915039062
293.000000000000000 17.000000000000000 49.306209564208984
294.000000000000000 17.000000000000000 47.625465393066406
295.000000000000000 17.000000000000000 47.721588134765625
296.000000000000000 17.000000000000000 46.073799133300781
297.000000000000000 17.000000000000000 44.600513458251953
298.000000000000000 17.000000000000000 43.010414123535156
299.000000000000000 17.000000000000000 41.500820159912109
300.000000000000000 17.000000000000000 39.415893554687500
301.000000000000000 17.000000000000000 38.845954895019531
302.000000000000000 17.000000000000000 39.207431793212891
303.000000000000000 17.000000000000000 39.258670806884766
304.000000000000000 17.000000000000000 38.221061706542969
305.000000000000000 17.000000000000000 39.085594177246094
306.000000000000000 17.000000000000000 39.390323638916016
307.000000000000000 17.000000000000000 40.005882263183594
308.000000000000000 17.000000000000000 38.796379089355469
309.000000000000000 17.000000000000000 38.917999267578125
310.000000000000000 17.000000000000000 39.162429809570312
311.000000000000000 17.000000000000000 38.277046203613281
312.000000000000000 17.000000000000000 38.424377441406250
313.000000000000000 17.000000000000000 36.737365722656250
314.000000000000000 17.000000000000000 38.338348388671875
315.000000000000000 17.000000000000000 38.142635345458984
316.000000000000000 17.000000000000000 38.488410949707031
317.000000000000000 17.000000000000000 37.289836883544922
318.000000000000000 17.000000000000000 36.299182891845703
319.000000000000000 17.000000000000000 36.857109069824219
320.000000000000000 17.000000000000000 35.807689666748047
321.000000000000000 17.000000000000000 35.613079071044922
322.000000000000000 17.000000000000000 33.673458099365234
323.000000000000000 17.000000000000000 32.617740631103516
324.000000000000000 17.000000000000000 33.971412658691406
325.000000000000000 17.000000000000000 30.536678314208984
326.000000000000000 17.000000000000000 31.203300476074219
327.000000000000000 17.000000000000000 29.998580932617188
328.000000000000000 17.000000000000000 29.944601058959961
329.000000000000000 17.000000000000000 29.668298721313477
330.000000000000000 17.000000000000000 28.608936309814453
331.000000000000000 17.000000000000000 28.109508514404297
332.000000000000000 17.000000000000000 26.111301422119141
333.000000000000000 17.000000000000000 26.375699996948242
334.000000000000000 17.000000000000000 25.592735290527344
335.000000000000000 17.000000000000000 24.743623733520508
336.000000000000000 17.000000000000000 23.720287322998047
337.000000000000000 17.000000000000000 21.577135086059570
338.000000000000000 17.000000000000000 21.679723739624023
339.000000000000000 17.000000000000000 21.109376907348633
340.000000000000000 17.000000000000000 18.849094390869141
341.000000000000000 17.000000000000000 14.528249740600586
342.000000000000000 17.000000000000000 8.344875335693359
200.000000000000000 18.000000000000000 53.343341827392578
201.000000000000000 18.000000000000000 50.113739013671875
202.000000000000000 18.000000000000000 50.932987213134766
203.000000000000000 18.000000000000000 52.640968322753906
204.000000000000000 18.000000000000000 53.281692504882812
205.000000000000000 18.000000000000000 53.879543304443359
206.000000000000000 18.000000000000000 54.815628051757812
207.000000000000000 18.000000000000000 54.706516265869141
208.000000000000000 18.000000000000000 54.798210144042969
209.000000000000000 18.000000000000000 54.947414398193359
210.000000000000000 18.000000000000000 54.814239501953125
211.000000000000000 18.000000000000000 55.738685607910156
212.000000000000000 18.000000000000000 55.760467529296875
213.000000000000000 18.000000000000000 56.534915924072266
214.000000000000000 18.000000000000000 56.531990051269531
215.000000000000000 18.000000000000000 57.294715881347656
216.000000000000000 18.000000000000000 57.056060791015625
217.000000000000000 18.000000000000000 57.624603271484375
218.000000000000000 18.000000000000000 57.369594573974609
219.000000000000000 18.000000000000000 57.957340240478516
220.000000000000000 18.000000000000000 58.055458068847656
221.000000000000000 18.000000000000000 58.235584259033203
222.000000000000000 18.000000000000000 58.731876373291016
223.000000000000000 18.000000000000000 58.837482452392578
224.000000000000000 18.000000000000000 59.148674011230469
225.000000000000000 18.000000000000000 58.651824951171875
226.000000000000000 18.000000000000000 58.274875640869141
227.000000000000000 18.000000000000000 58.516468048095703
228.000000000000000 18.000000000000000 58.969764709472656
229.000000000000000 18.000000000000000 59.393489837646484
230.000000000000000 18.000000000000000 58.815967559814453
231.000000000000000 18.000000000000000 59.257713317871094
232.000000000000000 18.000000000000000 58.867420196533203
233.000000000000000 18.000000000000000 59.626949310302734
234.000000000000000 18.000000000000000 59.479850769042969
235.000000000000000 18.000000000000000 59.713439941406250
236.000000000000000 18.000000000000000 59.476665496826172
237.000000000000000 18.000000000000000 59.585948944091797
238.000000000000000 18.000000000000000 59.263431549072266
239.000000000000000 18.000000000000000 59.348396301269531
240.000000000000000 18.000000000000000 59.577484130859375
241.000000000000000 18.000000000000000 60.780830383300781
242.000000000000000 18.000000000000000 60.676803588867188
243.000000000000000 18.000000000000000 61.141124725341797
244.000000000000000 18.000000000000000 59.812026977539062
245.000000000000000 18.000000000000000 60.755683898925781
246.000000000000000 18.000000000000000 59.284488677978516
247.000000000000000 18.000000000000000 59.571250915527344
248.000000000000000 18.000000000000000 58.962955474853516
249.000000000000000 18.000000000000000 58.857765197753906
250.000000000000000 18.000000000000000 60.352970123291016
251.000000000000000 18.000000000000000 59.493114471435547
252.000000000000000 18.000000000000000 60.285167694091797
253.000000000000000 18.000000000000000 59.635269165039062
254.000000000000000 18.000000000000000 59.585647583007812
255.000000000000000 18.000000000000000 59.847579956054688
256.000000000000000 18.000000000000000 59.809680938720703
257.000000000000000 18.000000000000000 59.877128601074219
258.000000000000000 18.000000000000000 57.761890411376953
259.000000000000000 18.000000000000000 57.260284423828125
260.000000000000000 18.000000000000000 57.465198516845703
261.000000000000000 18.000000000000000 58.681858062744141
262.000000000000000 18.000000000000000 58.346275329589844
263.000000000000000 18.000000000000000 58.267944335937500
264.000000000000000 18.000000000000000 58.223541259765625
265.000000000000000 18.000000000000000 58.674724578857422
266.000000000000000 18.000000000000000 56.676624298095703
267.000000000000000 18.000000000000000 56.283481597900391
268.000000000000000 18.000000000000000 56.960346221923828
269.000000000000000 18.000000000000000 56.974510192871094
270.000000000000000 18.000000000000000 58.182456970214844
271.000000000000000 18.000000000000000 56.537891387939453
272.000000000000000 18.000000000000000 57.619018554687500
273.000000000000000 18.000000000000000 57.689517974853516
274.000000000000000 18.000000000000000 57.251190185546875
275.000000000000000 18.000000000000000 54.577808380126953
276.000000000000000 18.000000000000000 56.466999053955078
277.000000000000000 18.000000000000000 55.759387969970703
278.000000000000000 18.000000000000000 53.932075500488281
279.000000000000000 18.000000000000000 54.563549041748047
280.000000000000000 18.000000000000000 52.773548126220703
281.000000000000000 18.000000000000000 54.259944915771484
282.000000000000000 18.000000000000000 53.342029571533203
283.000000000000000 18.000000000000000 53.212779998779297
284.000000000000000 18.000000000000000 53.516807556152344
285.000000000000000 18.000000000000000 51.621013641357422
286.000000000000000 18.000000000000000 52.139663696289062
287.000000000000000 18.000000000000000 50.933380126953125
288.000000000000000 18.000000000000000 51.574157714843750
289.000000000000000 18.000000000000000 50.187541961669922
290.000000000000000 18.000000000000000 49.567062377929688
291.000000000000000 18.000000000000000 49.565525054931641
292.000000000000000 18.000000000000000 49.151336669921875
293.000000000000000 18.000000000000000 49.012714385986328
294.000000000000000 18.000000000000000 48.503765106201172
295.000000000000000 18.000000000000000 47.277164459228516
296.000000000000000 18.000000000000000 45.880916595458984
297.000000000000000 18.000000000000000 44.029621124267578
298.000000000000000 18.000000000000000 42.778270721435547
299.000000000000000 18.000000000000000 41.757129669189453
300.000000000000000 18.000000000000000 39.994094848632812
301.000000000000000 18.000000000000000 38.934490203857422
302.000000000000000 18.000000000000000 38.637599945068359
303.000000000000000 18.000000000000000 39.749629974365234
304.000000000000000 18.000000000000000 39.142910003662109
305.000000000000000 18.000000000000000 39.237297058105469
306.000000000000000 18.000000000000000 38.480648040771484
307.000000000000000 18.000000000000000 38.716423034667969
308.000000000000000 18.000000000000000 38.806934356689453
309.000000000000000 18.000000000000000 39.897354125976562
310.000000000000000 18.000000000000000 39.426506042480469
311.000000000000000 18.000000000000000 39.251430511474609
312.000000000000000 18.000000000000000 39.121322631835938
313.000000000000000 18.000000000000000 38.618335723876953
314.000000000000000 18.000000000000000 37.180000305175781
315.000000000000000 18.000000000000000 37.987049102783203
316.000000000000000 18.000000000000000 38.590728759765625
317.000000000000000 18.000000000000000 37.177341461181641
318.000000000000000 18.000000000000000 37.149707794189453
319.000000000000000 18.000000000000000 35.801013946533203
320.000000000000000 18.000000000000000 36.172767639160156
321.000000000000000 18.000000000000000 34.485416412353516
322.000000000000000 18.000000000000000 33.366424560546875
323.000000000000000 18.000000000000000 33.345413208007812
324.000000000000000 18.000000000000000 31.753881454467773
325.000000000000000 18.000000000000000 31.895668029785156
326.000000000000000 18.000000000000000 31.436063766479492
327.000000000000000 18.000000000000000 29.301996231079102
328.000000000000000 18.000000000000000 31.464166641235352
329.000000000000000 18.000000000000000 29.711069107055664
330.000000000000000 18.000000000000000 29.113473892211914
331.000000000000000 18.000000000000000 26.893188476562500
332.000000000000000 18.000000000000000 26.529140472412109
333.000000000000000 18.000000000000000 26.160268783569336
334.000000000000000 18.000000000000000 24.620422363281250
335.000000000000000 18.000000000000000 23.937364578247070
336.000000000000000 18.000000000000000 23.147287368774414
337.000000000000000 18.000000000000000 22.838361740112305
338.000000000000000 18.000000000000000 20.794910430908203
339.000000000000000 18.000000000000000 20.344633102416992
340.000000000000000 18.000000000000000 18.929763793945312
341.000000000000000 18.000000000000000 13.033041954040527
342.000000000000000 18.000000000000000 12.098786354064941
200.000000000000000 19.000000000000000 50.590454101562500
201.000000000000000 19.000000000000000 53.861770629882812
202.000000000000000 19.000000000000000 51.434360504150391
203.000000000000000 19.000000000000000 53.002468109130859
204.000000000000000 19.000000000000000 54.460060119628906
205.000000000000000 19.000000000000000 54.763816833496094
206.000000000000000 19.000000000000000 55.685890197753906
207.000000000000000 19.000000000000000 55.016929626464844
208.000000000000000 19.000000000000000 55.293907165527344
209.000000000000000 19.000000000000000 55.362335205078125
210.000000000000000 19.000000000000000 55.674228668212891
211.000000000000000 19.000000000000000 55.899990081787109
212.000000000000000 19.000000000000000 56.490745544433594
213.000000000000000 19.000000000000000 56.669448852539062
214.000000000000000 19.000000000000000 56.950218200683594
215.000000000000000 19.000000000000000 57.443386077880859
216.000000000000000 19.000000000000000 57.101692199707031
217.000000000000000 19.000000000000000 57.832050323486328
218.000000000000000 19.000000000000000 57.711349487304688
219.000000000000000 19.000000000000000 58.284187316894531
220.000000000000000 19.000000000000000 58.264682769775391
221.000000000000000 19.000000000000000 58.039100646972656
222.000000000000000 19.000000000000000 58.984958648681641
223.000000000000000 19.000000000000000 58.966854095458984
224.000000000000000 19.000000000000000 59.058643341064453
225.000000000000000 19.000000000000000 58.899436950683594
226.000000000000000 19.000000000000000 58.836414337158203
227.000000000000000 19.000000000000000 59.412445068359375
228.000000000000000 19.000000000000000 59.301219940185547
229.000000000000000 19.000000000000000 59.846401214599609
230.000000000000000 19.000000000000000 58.852424621582031
231.000000000000000 19.000000000000000 59.173542022705078
232.000000000000000 19.000000000000000 58.967716217041016
233.000000000000000 19.000000000000000 59.218276977539062
234.000000000000000 19.000000000000000 59.645614624023438
235.000000000000000 19.000000000000000 59.933448791503906
236.000000000000000 19.000000000000000 59.556301116943359
237.000000000000000 19.000000000000000 60.095829010009766
238.000000000000000 19.000000000000000 59.606033325195312
239.000000000000000 19.000000000000000 60.239940643310547
240.000000000000000 19.000000000000000 60.149959564208984
241.000000000000000 19.000000000000000 60.388790130615234
242.000000000000000 19.000000000000000 60.795536041259766
243.000000000000000 19.000000000000000 61.099750518798828
244.000000000000000 19.000000000000000 61.001056671142578
245.000000000000000 19.000000000000000 60.400257110595703
246.000000000000000 19.000000000000000 59.189147949218750
247.000000000000000 19.000000000000000 60.329788208007812
248.000000000000000 19.000000000000000 59.894725799560547
249.000000000000000 19.000000000000000 60.286479949951172
250.000000000000000 19.000000000000000 60.621395111083984
251.000000000000000 19.000000000000000 60.479026794433594
252.000000000000000 19.000000000000000 60.073028564453125
253.000000000000000 19.000000000000000 60.631954193115234
254.000000000000000 19.000000000000000 60.370800018310547
255.000000000000000 19.000000000000000 60.018390655517578
256.000000000000000 19.000000000000000 58.892230987548828
257.000000000000000 19.000000000000000 59.571693420410156
258.000000000000000 19.000000000000000 58.006412506103516
259.000000000000000 19.000000000000000 59.088836669921875
260.000000000000000 19.000000000000000 58.723056793212891
261.000000000000000 19.000000000000000 58.190460205078125
262.000000000000000 19.000000000000000 58.874034881591797
263.000000000000000 19.000000000000000 58.673870086669922
264.000000000000000 19.000000000000000 59.206035614013672
265.000000000000000 19.000000000000000 57.955589294433594
266.000000000000000 19.000000000000000 57.286167144775391
267.000000000000000 19.000000000000000 57.997692108154297
268.000000000000000 19.000000000000000 59.255611419677734
269.000000000000000 19.000000000000000 59.742801666259766
270.000000000000000 19.000000000000000 59.990291595458984
271.000000000000000 19.000000000000000 58.110427856445312
272.000000000000000 19.000000000000000 57.980602264404297
273.000000000000000 19.000000000000000 57.870330810546875
274.000000000000000 19.000000000000000 54.898422241210938
275.000000000000000 19.000000000000000 55.166179656982422
276.000000000000000 19.000000000000000 55.090496063232422
277.000000000000000 19.000000000000000 56.647575378417969
278.000000000000000 19.000000000000000 56.325603485107422
279.000000000000000 19.000000000000000 55.407337188720703
280.000000000000000 19.000000000000000 54.463752746582031
281.000000000000000 19.000000000000000 53.201511383056641
282.000000000000000 19.000000000000000 54.086963653564453
283.000000000000000 19.000000000000000 52.882743835449219
284.000000000000000 19.000000000000000 53.851661682128906
285.000000000000000 19.000000000000000 52.243045806884766
286.000000000000000 19.000000000000000 51.911537170410156
287.000000000000000 19.000000000000000 50.704841613769531
288.000000000000000 19.000000000000000 51.816516876220703
289.000000000000000 19.000000000000000 49.748752593994141
290.000000000000000 19.000000000000000 49.649486541748047
291.000000000000000 19.000000000000000 48.803569793701172
292.000000000000000 19.000000000000000 48.793529510498047
293.000000000000000 19.000000000000000 49.356349945068359
294.000000000000000 19.000000000000000 47.757427215576172
295.000000000000000 19.000000000000000 47.771053314208984
296.000000000000000 19.000000000000000 45.447814941406250
297.000000000000000 19.000000000000000 43.880550384521484
298.000000000000000 19.000000000000000 42.333202362060547
299.000000000000000 19.000000000000000 41.682113647460938
300.000000000000000 19.000000000000000 39.650741577148438
301.000000000000000 19.000000000000000 39.358047485351562
302.000000000000000 19.000000000000000 38.660335540771484
303.000000000000000 19.000000000000000 39.967773437500000
304.000000000000000 19.000000000000000 39.109519958496094
305.000000000000000 19.000000000000000 39.915050506591797
306.000000000000000 19.000000000000000 39.673015594482422
307.000000000000000 19.000000000000000 40.477474212646484
308.000000000000000 19.000000000000000 39.216197967529297
309.000000000000000 19.000000000000000 39.618217468261719
310.000000000000000 19.000000000000000 39.313526153564453
311.000000000000000 19.000000000000000 37.453872680664062
312.000000000000000 19.000000000000000 38.640586853027344
313.000000000000000 19.000000000000000 37.834079742431641
314.000000000000000 19.000000000000000 39.120677947998047
315.000000000000000 19.000000000000000 37.835903167724609
316.000000000000000 19.000000000000000 38.602184295654297
317.000000000000000 19.000000000000000 38.149486541748047
318.000000000000000 19.000000000000000 37.439407348632812
319.000000000000000 19.000000000000000 37.245700836181641
320.000000000000000 19.000000000000000 35.067405700683594
321.000000000000000 19.000000000000000 35.639957427978516
322.000000000000000 19.000000000000000 33.524868011474609
323.000000000000000 19.000000000000000 32.298358917236328
324.000000000000000 19.000000000000000 33.602912902832031
325.000000000000000 19.000000000000000 30.523544311523438
326.000000000000000 19.000000000000000 30.085376739501953
327.000000000000000 19.000000000000000 29.412715911865234
328.000000000000000 19.000000000000000 30.680196762084961
329.000000000000000 19.000000000000000 29.383159637451172
330.000000000000000 19.000000000000000 28.523927688598633
331.000000000000000 19.000000000000000 27.174314498901367
332.000000000000000 19.000000000000000 25.566648483276367
333.000000000000000 19.000000000000000 26.168960571289062
334.000000000000000 19.000000000000000 25.069004058837891
335.000000000000000 19.000000000000000 24.525205612182617
336.000000000000000 19.000000000000000 23.070446014404297
337.000000000000000 19.000000000000000 21.525056838989258
338.000000000000000 19.000000000000000 21.138013839721680
339.000000000000000 19.000000000000000 20.902204513549805
340.000000000000000 19.000000000000000 17.166368484497070
341.000000000000000 19.000000000000000 14.185011863708496
342.000000000000000 19.000000000000000 16.728330612182617
200.000000000000000 20.000000000000000 53.813831329345703
201.000000000000000 20.000000000000000 54.055500030517578
202.000000000000000 20.000000000000000 53.939052581787109
203.000000000000000 20.000000000000000 54.275733947753906
204.000000000000000 20.000000000000000 55.016723632812500
205.000000000000000 20.000000000000000 55.065479278564453
206.000000000000000 20.000000000000000 55.758106231689453
207.000000000000000 20.000000000000000 55.462516784667969
208.000000000000000 20.000000000000000 55.278068542480469
209.000000000000000 20.000000000000000 55.999073028564453
210.000000000000000 20.000000000000000 55.884510040283203
211.000000000000000 20.000000000000000 56.875812530517578
212.000000000000000 20.000000000000000 56.696556091308594
213.000000000000000 20.000000000000000 57.176242828369141
214.000000000000000 20.000000000000000 57.041763305664062
215.000000000000000 20.000000000000000 57.619396209716797
216.000000000000000 20.000000000000000 57.451385498046875
217.000000000000000 20.000000000000000 57.819927215576172
218.000000000000000 20.000000000000000 57.938327789306641
219.000000000000000 20.000000000000000 58.415100097656250
220.000000000000000 20.000000000000000 58.584709167480469
221.000000000000000 20.000000000000000 59.332546234130859
222.000000000000000 20.000000000000000 59.096244812011719
223.000000000000000 20.000000000000000 58.628215789794922
224.000000000000000 20.000000000000000 59.218154907226562
225.000000000000000 20.000000000000000 59.134181976318359
226.000000000000000 20.000000000000000 59.100570678710938
227.000000000000000 20.000000000000000 59.001228332519531
228.000000000000000 20.000000000000000 59.422740936279297
229.000000000000000 20.000000000000000 59.619636535644531
230.000000000000000 20.000000000000000 59.257354736328125
231.000000000000000 20.000000000000000 59.476440429687500
232.000000000000000 20.000000000000000 59.424930572509766
233.000000000000000 20.000000000000000 59.840324401855469
234.000000000000000 20.000000000000000 59.858722686767578
235.000000000000000 20.000000000000000 59.867794036865234
236.000000000000000 20.000000000000000 59.858863830566406
237.000000000000000 20.000000000000000 59.601432800292969
238.000000000000000 20.000000000000000 59.598976135253906
239.000000000000000 20.000000000000000 59.771484375000000
240.000000000000000 20.000000000000000 60.297103881835938
241.000000000000000 20.000000000000000 60.752113342285156
242.000000000000000 20.000000000000000 61.186119079589844
243.000000000000000 20.000000000000000 61.408672332763672
244.000000000000000 20.000000000000000 61.029502868652344
245.000000000000000 20.000000000000000 61.125942230224609
246.000000000000000 20.000000000000000 60.265392303466797
247.000000000000000 20.000000000000000 60.781368255615234
248.000000000000000 20.000000000000000 59.846622467041016
249.000000000000000 20.000000000000000 59.673038482666016
250.000000000000000 20.000000000000000 60.706218719482422
251.000000000000000 20.000000000000000 59.442436218261719
252.000000000000000 20.000000000000000 60.990077972412109
253.000000000000000 20.000000000000000 59.760211944580078
254.000000000000000 20.000000000000000 60.488681793212891
255.000000000000000 20.000000000000000 59.657585144042969
256.000000000000000 20.000000000000000 59.758827209472656
257.000000000000000 20.000000000000000 59.333446502685547
258.000000000000000 20.000000000000000 58.959766387939453
259.000000000000000 20.000000000000000 58.680892944335938
260.000000000000000 20.000000000000000 59.310699462890625
261.000000000000000 20.000000000000000 59.416004180908203
