ply
format ascii 1.0
element vertex 825
property double x
property double y
property double z
end_header
163.000000000000000 82.000000000000000 60.669303894042969
164.000000000000000 82.000000000000000 60.567802429199219
165.000000000000000 82.000000000000000 60.556701660156250
166.000000000000000 82.000000000000000 60.431999206542969
167.000000000000000 82.000000000000000 60.251495361328125
168.000000000000000 82.000000000000000 60.505958557128906
169.000000000000000 82.000000000000000 60.392681121826172
170.000000000000000 82.000000000000000 60.471057891845703
171.000000000000000 82.000000000000000 60.034904479980469
172.000000000000000 82.000000000000000 60.238811492919922
173.000000000000000 82.000000000000000 59.205253601074219
174.000000000000000 82.000000000000000 60.369342803955078
175.000000000000000 82.000000000000000 59.360145568847656
176.000000000000000 82.000000000000000 59.345321655273438
177.000000000000000 82.000000000000000 59.081146240234375
178.000000000000000 82.000000000000000 58.678661346435547
179.000000000000000 82.000000000000000 57.663749694824219
180.000000000000000 82.000000000000000 57.504512786865234
181.000000000000000 82.000000000000000 57.554328918457031
182.000000000000000 82.000000000000000 57.254806518554688
183.000000000000000 82.000000000000000 56.214870452880859
184.000000000000000 82.000000000000000 55.545040130615234
185.000000000000000 82.000000000000000 54.341464996337891
186.000000000000000 82.000000000000000 54.264293670654297
187.000000000000000 82.000000000000000 53.631732940673828
188.000000000000000 82.000000000000000 52.793224334716797
189.000000000000000 82.000000000000000 53.133235931396484
190.000000000000000 82.000000000000000 53.435298919677734
191.000000000000000 82.000000000000000 53.713932037353516
192.000000000000000 82.000000000000000 53.244426727294922
193.000000000000000 82.000000000000000 52.540328979492188
194.000000000000000 82.000000000000000 52.297901153564453
195.000000000000000 82.000000000000000 51.804065704345703
196.000000000000000 82.000000000000000 51.824871063232422
197.000000000000000 82.000000000000000 51.250743865966797
198.000000000000000 82.000000000000000 51.154727935791016
199.000000000000000 82.000000000000000 50.237800598144531
200.000000000000000 82.000000000000000 49.869094848632812
201.000000000000000 82.000000000000000 49.095020294189453
202.000000000000000 82.000000000000000 49.032596588134766
203.000000000000000 82.000000000000000 48.270317077636719
204.000000000000000 82.000000000000000 48.971614837646484
205.000000000000000 82.000000000000000 47.267784118652344
206.000000000000000 82.000000000000000 48.237628936767578
207.000000000000000 82.000000000000000 47.945941925048828
208.000000000000000 82.000000000000000 47.966739654541016
209.000000000000000 82.000000000000000 45.673263549804688
210.000000000000000 82.000000000000000 43.713619232177734
211.000000000000000 82.000000000000000 42.147586822509766
212.000000000000000 82.000000000000000 42.653766632080078
213.000000000000000 82.000000000000000 40.970275878906250
214.000000000000000 82.000000000000000 41.871307373046875
319.000000000000000 82.000000000000000 33.703315734863281
320.000000000000000 82.000000000000000 36.720066070556641
321.000000000000000 82.000000000000000 37.418022155761719
322.000000000000000 82.000000000000000 40.180950164794922
323.000000000000000 82.000000000000000 41.029644012451172
324.000000000000000 82.000000000000000 42.098670959472656
325.000000000000000 82.000000000000000 43.711460113525391
326.000000000000000 82.000000000000000 43.879093170166016
327.000000000000000 82.000000000000000 44.182754516601562
328.000000000000000 82.000000000000000 43.115898132324219
329.000000000000000 82.000000000000000 43.683670043945312
330.000000000000000 82.000000000000000 43.830814361572266
331.000000000000000 82.000000000000000 43.978721618652344
332.000000000000000 82.000000000000000 43.950649261474609
333.000000000000000 82.000000000000000 44.273979187011719
334.000000000000000 82.000000000000000 45.241634368896484
335.000000000000000 82.000000000000000 45.627861022949219
336.000000000000000 82.000000000000000 45.904396057128906
337.000000000000000 82.000000000000000 46.154342651367188
338.000000000000000 82.000000000000000 46.468151092529297
339.000000000000000 82.000000000000000 47.293800354003906
340.000000000000000 82.000000000000000 47.709247589111328
341.000000000000000 82.000000000000000 48.296623229980469
342.000000000000000 82.000000000000000 48.488040924072266
343.000000000000000 82.000000000000000 48.530529022216797
344.000000000000000 82.000000000000000 47.904331207275391
345.000000000000000 82.000000000000000 48.944400787353516
346.000000000000000 82.000000000000000 48.529647827148438
347.000000000000000 82.000000000000000 48.694725036621094
348.000000000000000 82.000000000000000 48.724094390869141
349.000000000000000 82.000000000000000 49.351650238037109
350.000000000000000 82.000000000000000 49.252738952636719
351.000000000000000 82.000000000000000 49.478713989257812
352.000000000000000 82.000000000000000 49.287971496582031
353.000000000000000 82.000000000000000 49.661792755126953
354.000000000000000 82.000000000000000 49.257442474365234
355.000000000000000 82.000000000000000 49.348079681396484
356.000000000000000 82.000000000000000 50.065502166748047
357.000000000000000 82.000000000000000 50.564792633056641
358.000000000000000 82.000000000000000 50.200424194335938
359.000000000000000 82.000000000000000 50.085853576660156
360.000000000000000 82.000000000000000 50.874649047851562
361.000000000000000 82.000000000000000 49.936012268066406
362.000000000000000 82.000000000000000 50.308738708496094
363.000000000000000 82.000000000000000 51.874485015869141
364.000000000000000 82.000000000000000 52.384178161621094
365.000000000000000 82.000000000000000 51.255508422851562
366.000000000000000 82.000000000000000 52.322387695312500
367.000000000000000 82.000000000000000 52.731662750244141
368.000000000000000 82.000000000000000 52.994312286376953
369.000000000000000 82.000000000000000 53.036647796630859
370.000000000000000 82.000000000000000 52.313999176025391
371.000000000000000 82.000000000000000 52.519435882568359
372.000000000000000 82.000000000000000 52.760437011718750
373.000000000000000 82.000000000000000 52.593017578125000
374.000000000000000 82.000000000000000 53.599075317382812
375.000000000000000 82.000000000000000 53.506275177001953
376.000000000000000 82.000000000000000 53.608470916748047
377.000000000000000 82.000000000000000 53.787445068359375
378.000000000000000 82.000000000000000 53.537723541259766
379.000000000000000 82.000000000000000 53.545009613037109
380.000000000000000 82.000000000000000 53.595088958740234
381.000000000000000 82.000000000000000 53.006778717041016
382.000000000000000 82.000000000000000 53.241386413574219
383.000000000000000 82.000000000000000 53.226333618164062
384.000000000000000 82.000000000000000 53.897006988525391
385.000000000000000 82.000000000000000 53.843368530273438
386.000000000000000 82.000000000000000 53.533199310302734
387.000000000000000 82.000000000000000 53.720767974853516
388.000000000000000 82.000000000000000 53.530113220214844
389.000000000000000 82.000000000000000 53.250736236572266
390.000000000000000 82.000000000000000 53.877490997314453
391.000000000000000 82.000000000000000 53.567790985107422
392.000000000000000 82.000000000000000 53.497280120849609
393.000000000000000 82.000000000000000 53.105579376220703
394.000000000000000 82.000000000000000 53.432491302490234
395.000000000000000 82.000000000000000 53.471408843994141
396.000000000000000 82.000000000000000 52.551525115966797
397.000000000000000 82.000000000000000 52.397830963134766
398.000000000000000 82.000000000000000 52.073242187500000
399.000000000000000 82.000000000000000 51.772315979003906
400.000000000000000 82.000000000000000 51.290477752685547
401.000000000000000 82.000000000000000 52.200717926025391
402.000000000000000 82.000000000000000 51.482147216796875
403.000000000000000 82.000000000000000 51.464572906494141
404.000000000000000 82.000000000000000 52.528526306152344
405.000000000000000 82.000000000000000 51.314773559570312
406.000000000000000 82.000000000000000 51.092979431152344
407.000000000000000 82.000000000000000 50.805461883544922
408.000000000000000 82.000000000000000 51.735218048095703
409.000000000000000 82.000000000000000 51.917228698730469
410.000000000000000 82.000000000000000 51.748878479003906
411.000000000000000 82.000000000000000 52.309604644775391
412.000000000000000 82.000000000000000 50.765209197998047
413.000000000000000 82.000000000000000 51.344802856445312
414.000000000000000 82.000000000000000 50.433082580566406
415.000000000000000 82.000000000000000 48.771076202392578
416.000000000000000 82.000000000000000 49.893802642822266
417.000000000000000 82.000000000000000 47.269470214843750
418.000000000000000 82.000000000000000 46.628784179687500
419.000000000000000 82.000000000000000 45.662162780761719
420.000000000000000 82.000000000000000 42.584232330322266
421.000000000000000 82.000000000000000 42.142307281494141
422.000000000000000 82.000000000000000 40.543834686279297
423.000000000000000 82.000000000000000 39.326282501220703
424.000000000000000 82.000000000000000 39.317436218261719
425.000000000000000 82.000000000000000 37.369491577148438
426.000000000000000 82.000000000000000 39.591533660888672
427.000000000000000 82.000000000000000 42.051342010498047
428.000000000000000 82.000000000000000 16.001266479492188
106.000000000000000 83.000000000000000 44.867198944091797
107.000000000000000 83.000000000000000 46.214790344238281
108.000000000000000 83.000000000000000 48.289581298828125
109.000000000000000 83.000000000000000 48.268077850341797
110.000000000000000 83.000000000000000 47.008277893066406
111.000000000000000 83.000000000000000 48.162590026855469
112.000000000000000 83.000000000000000 49.087875366210938
113.000000000000000 83.000000000000000 48.731273651123047
114.000000000000000 83.000000000000000 49.526210784912109
115.000000000000000 83.000000000000000 50.510379791259766
116.000000000000000 83.000000000000000 50.915016174316406
117.000000000000000 83.000000000000000 51.782634735107422
118.000000000000000 83.000000000000000 51.033176422119141
119.000000000000000 83.000000000000000 51.377254486083984
120.000000000000000 83.000000000000000 51.361892700195312
121.000000000000000 83.000000000000000 51.331367492675781
122.000000000000000 83.000000000000000 51.709999084472656
123.000000000000000 83.000000000000000 52.400783538818359
124.000000000000000 83.000000000000000 52.820671081542969
125.000000000000000 83.000000000000000 53.017292022705078
126.000000000000000 83.000000000000000 52.974830627441406
127.000000000000000 83.000000000000000 52.938060760498047
128.000000000000000 83.000000000000000 53.390052795410156
129.000000000000000 83.000000000000000 53.614402770996094
130.000000000000000 83.000000000000000 53.977787017822266
131.000000000000000 83.000000000000000 54.449764251708984
132.000000000000000 83.000000000000000 54.379035949707031
133.000000000000000 83.000000000000000 54.595516204833984
134.000000000000000 83.000000000000000 54.996425628662109
135.000000000000000 83.000000000000000 55.130767822265625
136.000000000000000 83.000000000000000 55.227691650390625
137.000000000000000 83.000000000000000 54.561466217041016
138.000000000000000 83.000000000000000 55.353099822998047
139.000000000000000 83.000000000000000 55.689537048339844
140.000000000000000 83.000000000000000 57.174781799316406
141.000000000000000 83.000000000000000 56.404109954833984
142.000000000000000 83.000000000000000 57.822586059570312
143.000000000000000 83.000000000000000 57.608482360839844
144.000000000000000 83.000000000000000 57.995082855224609
145.000000000000000 83.000000000000000 57.852497100830078
146.000000000000000 83.000000000000000 58.330516815185547
147.000000000000000 83.000000000000000 58.329002380371094
148.000000000000000 83.000000000000000 58.710636138916016
149.000000000000000 83.000000000000000 58.787666320800781
150.000000000000000 83.000000000000000 59.330692291259766
151.000000000000000 83.000000000000000 59.331008911132812
152.000000000000000 83.000000000000000 59.683490753173828
153.000000000000000 83.000000000000000 59.792377471923828
154.000000000000000 83.000000000000000 60.133838653564453
155.000000000000000 83.000000000000000 60.014579772949219
156.000000000000000 83.000000000000000 60.191818237304688
157.000000000000000 83.000000000000000 59.778129577636719
158.000000000000000 83.000000000000000 60.333763122558594
159.000000000000000 83.000000000000000 60.161853790283203
160.000000000000000 83.000000000000000 60.455707550048828
161.000000000000000 83.000000000000000 60.407703399658203
162.000000000000000 83.000000000000000 60.770950317382812
163.000000000000000 83.000000000000000 60.589942932128906
164.000000000000000 83.000000000000000 60.324222564697266
165.000000000000000 83.000000000000000 60.246318817138672
166.000000000000000 83.000000000000000 60.186943054199219
167.000000000000000 83.000000000000000 60.130184173583984
168.000000000000000 83.000000000000000 60.370532989501953
169.000000000000000 83.000000000000000 60.046218872070312
170.000000000000000 83.000000000000000 60.451503753662109
171.000000000000000 83.000000000000000 60.136989593505859
172.000000000000000 83.000000000000000 59.992359161376953
173.000000000000000 83.000000000000000 59.557640075683594
174.000000000000000 83.000000000000000 60.031166076660156
175.000000000000000 83.000000000000000 59.329170227050781
176.000000000000000 83.000000000000000 59.637744903564453
177.000000000000000 83.000000000000000 59.073818206787109
178.000000000000000 83.000000000000000 59.073223114013672
179.000000000000000 83.000000000000000 57.845161437988281
180.000000000000000 83.000000000000000 58.368625640869141
181.000000000000000 83.000000000000000 57.563976287841797
182.000000000000000 83.000000000000000 56.927745819091797
183.000000000000000 83.000000000000000 56.223945617675781
184.000000000000000 83.000000000000000 55.354244232177734
185.000000000000000 83.000000000000000 55.293533325195312
186.000000000000000 83.000000000000000 54.012523651123047
187.000000000000000 83.000000000000000 52.937217712402344
188.000000000000000 83.000000000000000 52.783843994140625
189.000000000000000 83.000000000000000 52.430023193359375
190.000000000000000 83.000000000000000 53.182964324951172
191.000000000000000 83.000000000000000 53.479934692382812
192.000000000000000 83.000000000000000 52.923080444335938
193.000000000000000 83.000000000000000 53.383857727050781
194.000000000000000 83.000000000000000 52.179904937744141
195.000000000000000 83.000000000000000 51.796455383300781
196.000000000000000 83.000000000000000 51.091987609863281
197.000000000000000 83.000000000000000 50.937866210937500
198.000000000000000 83.000000000000000 50.871803283691406
199.000000000000000 83.000000000000000 50.095653533935547
200.000000000000000 83.000000000000000 49.949752807617188
201.000000000000000 83.000000000000000 49.073860168457031
202.000000000000000 83.000000000000000 48.968284606933594
203.000000000000000 83.000000000000000 49.061691284179688
204.000000000000000 83.000000000000000 48.264770507812500
205.000000000000000 83.000000000000000 46.727108001708984
206.000000000000000 83.000000000000000 48.323661804199219
207.000000000000000 83.000000000000000 47.892406463623047
208.000000000000000 83.000000000000000 47.975322723388672
209.000000000000000 83.000000000000000 46.388114929199219
210.000000000000000 83.000000000000000 43.563957214355469
211.000000000000000 83.000000000000000 42.210414886474609
212.000000000000000 83.000000000000000 42.119129180908203
213.000000000000000 83.000000000000000 39.475090026855469
214.000000000000000 83.000000000000000 41.287555694580078
320.000000000000000 83.000000000000000 38.725917816162109
321.000000000000000 83.000000000000000 39.533817291259766
322.000000000000000 83.000000000000000 38.569770812988281
323.000000000000000 83.000000000000000 42.042419433593750
324.000000000000000 83.000000000000000 42.362842559814453
325.000000000000000 83.000000000000000 44.054626464843750
326.000000000000000 83.000000000000000 43.689933776855469
327.000000000000000 83.000000000000000 43.422821044921875
328.000000000000000 83.000000000000000 43.794639587402344
329.000000000000000 83.000000000000000 43.718677520751953
330.000000000000000 83.000000000000000 44.175041198730469
331.000000000000000 83.000000000000000 44.101112365722656
332.000000000000000 83.000000000000000 45.293685913085938
333.000000000000000 83.000000000000000 44.388462066650391
334.000000000000000 83.000000000000000 46.686252593994141
335.000000000000000 83.000000000000000 45.660953521728516
336.000000000000000 83.000000000000000 46.235805511474609
337.000000000000000 83.000000000000000 46.167728424072266
338.000000000000000 83.000000000000000 46.724945068359375
339.000000000000000 83.000000000000000 47.937282562255859
340.000000000000000 83.000000000000000 48.007453918457031
341.000000000000000 83.000000000000000 49.033737182617188
342.000000000000000 83.000000000000000 48.785686492919922
343.000000000000000 83.000000000000000 49.202644348144531
344.000000000000000 83.000000000000000 48.825649261474609
345.000000000000000 83.000000000000000 49.626960754394531
346.000000000000000 83.000000000000000 49.020042419433594
347.000000000000000 83.000000000000000 49.588031768798828
348.000000000000000 83.000000000000000 49.442939758300781
349.000000000000000 83.000000000000000 49.984016418457031
350.000000000000000 83.000000000000000 50.507518768310547
351.000000000000000 83.000000000000000 50.226783752441406
352.000000000000000 83.000000000000000 50.779655456542969
353.000000000000000 83.000000000000000 50.373226165771484
354.000000000000000 83.000000000000000 50.197151184082031
355.000000000000000 83.000000000000000 49.395217895507812
356.000000000000000 83.000000000000000 50.313541412353516
357.000000000000000 83.000000000000000 50.336978912353516
358.000000000000000 83.000000000000000 51.554557800292969
359.000000000000000 83.000000000000000 50.225570678710938
360.000000000000000 83.000000000000000 51.307659149169922
361.000000000000000 83.000000000000000 50.994770050048828
362.000000000000000 83.000000000000000 50.607852935791016
363.000000000000000 83.000000000000000 50.339332580566406
364.000000000000000 83.000000000000000 51.677227020263672
365.000000000000000 83.000000000000000 52.081409454345703
366.000000000000000 83.000000000000000 52.093235015869141
367.000000000000000 83.000000000000000 51.658473968505859
368.000000000000000 83.000000000000000 52.253475189208984
369.000000000000000 83.000000000000000 52.117584228515625
370.000000000000000 83.000000000000000 52.761032104492188
371.000000000000000 83.000000000000000 52.884365081787109
372.000000000000000 83.000000000000000 53.192676544189453
373.000000000000000 83.000000000000000 52.882579803466797
374.000000000000000 83.000000000000000 52.945632934570312
375.000000000000000 83.000000000000000 53.445629119873047
376.000000000000000 83.000000000000000 53.699932098388672
377.000000000000000 83.000000000000000 53.200141906738281
378.000000000000000 83.000000000000000 53.022552490234375
379.000000000000000 83.000000000000000 53.505939483642578
380.000000000000000 83.000000000000000 53.289241790771484
381.000000000000000 83.000000000000000 53.407573699951172
382.000000000000000 83.000000000000000 53.332851409912109
383.000000000000000 83.000000000000000 53.173480987548828
384.000000000000000 83.000000000000000 53.610458374023438
385.000000000000000 83.000000000000000 53.729553222656250
386.000000000000000 83.000000000000000 54.109916687011719
387.000000000000000 83.000000000000000 53.916385650634766
388.000000000000000 83.000000000000000 53.382194519042969
389.000000000000000 83.000000000000000 53.684234619140625
390.000000000000000 83.000000000000000 53.843215942382812
391.000000000000000 83.000000000000000 53.617504119873047
392.000000000000000 83.000000000000000 53.171566009521484
393.000000000000000 83.000000000000000 53.493595123291016
394.000000000000000 83.000000000000000 53.622200012207031
395.000000000000000 83.000000000000000 53.813995361328125
396.000000000000000 83.000000000000000 52.507774353027344
397.000000000000000 83.000000000000000 51.610969543457031
398.000000000000000 83.000000000000000 52.871070861816406
399.000000000000000 83.000000000000000 52.180694580078125
400.000000000000000 83.000000000000000 51.237159729003906
401.000000000000000 83.000000000000000 51.670803070068359
402.000000000000000 83.000000000000000 51.434909820556641
403.000000000000000 83.000000000000000 51.644542694091797
404.000000000000000 83.000000000000000 51.748432159423828
405.000000000000000 83.000000000000000 50.503269195556641
406.000000000000000 83.000000000000000 50.938629150390625
407.000000000000000 83.000000000000000 51.098285675048828
408.000000000000000 83.000000000000000 50.401943206787109
409.000000000000000 83.000000000000000 51.477386474609375
410.000000000000000 83.000000000000000 50.666320800781250
411.000000000000000 83.000000000000000 50.738601684570312
412.000000000000000 83.000000000000000 51.221557617187500
413.000000000000000 83.000000000000000 50.920261383056641
414.000000000000000 83.000000000000000 50.580078125000000
415.000000000000000 83.000000000000000 49.090347290039062
416.000000000000000 83.000000000000000 48.491081237792969
417.000000000000000 83.000000000000000 48.595413208007812
418.000000000000000 83.000000000000000 47.223533630371094
419.000000000000000 83.000000000000000 44.304031372070312
420.000000000000000 83.000000000000000 44.302406311035156
421.000000000000000 83.000000000000000 42.745964050292969
422.000000000000000 83.000000000000000 42.350749969482422
423.000000000000000 83.000000000000000 38.637287139892578
424.000000000000000 83.000000000000000 38.214424133300781
425.000000000000000 83.000000000000000 36.787273406982422
426.000000000000000 83.000000000000000 38.858631134033203
427.000000000000000 83.000000000000000 39.455577850341797
106.000000000000000 84.000000000000000 43.882366180419922
107.000000000000000 84.000000000000000 46.052547454833984
108.000000000000000 84.000000000000000 48.485416412353516
109.000000000000000 84.000000000000000 48.880111694335938
110.000000000000000 84.000000000000000 48.331111907958984
111.000000000000000 84.000000000000000 47.232490539550781
112.000000000000000 84.000000000000000 47.777790069580078
113.000000000000000 84.000000000000000 48.194198608398438
114.000000000000000 84.000000000000000 48.899227142333984
115.000000000000000 84.000000000000000 50.186019897460938
116.000000000000000 84.000000000000000 51.066959381103516
117.000000000000000 84.000000000000000 50.723922729492188
118.000000000000000 84.000000000000000 51.415119171142578
119.000000000000000 84.000000000000000 51.371944427490234
120.000000000000000 84.000000000000000 51.068141937255859
121.000000000000000 84.000000000000000 50.868030548095703
122.000000000000000 84.000000000000000 51.396667480468750
123.000000000000000 84.000000000000000 52.037876129150391
124.000000000000000 84.000000000000000 52.006736755371094
125.000000000000000 84.000000000000000 52.432266235351562
126.000000000000000 84.000000000000000 53.071933746337891
127.000000000000000 84.000000000000000 53.154949188232422
128.000000000000000 84.000000000000000 53.524295806884766
129.000000000000000 84.000000000000000 53.527080535888672
130.000000000000000 84.000000000000000 53.794811248779297
131.000000000000000 84.000000000000000 53.707794189453125
132.000000000000000 84.000000000000000 53.702342987060547
133.000000000000000 84.000000000000000 54.469738006591797
134.000000000000000 84.000000000000000 54.558963775634766
135.000000000000000 84.000000000000000 55.615852355957031
136.000000000000000 84.000000000000000 55.830146789550781
137.000000000000000 84.000000000000000 54.802505493164062
138.000000000000000 84.000000000000000 55.773468017578125
139.000000000000000 84.000000000000000 55.823574066162109
140.000000000000000 84.000000000000000 56.599311828613281
141.000000000000000 84.000000000000000 56.866432189941406
142.000000000000000 84.000000000000000 57.432147979736328
143.000000000000000 84.000000000000000 58.045749664306641
144.000000000000000 84.000000000000000 57.707241058349609
145.000000000000000 84.000000000000000 58.234321594238281
146.000000000000000 84.000000000000000 58.359497070312500
147.000000000000000 84.000000000000000 58.585819244384766
148.000000000000000 84.000000000000000 58.426845550537109
149.000000000000000 84.000000000000000 58.505142211914062
150.000000000000000 84.000000000000000 58.988548278808594
151.000000000000000 84.000000000000000 59.241893768310547
152.000000000000000 84.000000000000000 59.683650970458984
153.000000000000000 84.000000000000000 59.560932159423828
154.000000000000000 84.000000000000000 60.014896392822266
155.000000000000000 84.000000000000000 60.239810943603516
156.000000000000000 84.000000000000000 59.986827850341797
157.000000000000000 84.000000000000000 60.129154205322266
158.000000000000000 84.000000000000000 60.365341186523438
159.000000000000000 84.000000000000000 60.564807891845703
160.000000000000000 84.000000000000000 60.664821624755859
161.000000000000000 84.000000000000000 60.612335205078125
162.000000000000000 84.000000000000000 60.704772949218750
163.000000000000000 84.000000000000000 60.651248931884766
164.000000000000000 84.000000000000000 60.312213897705078
165.000000000000000 84.000000000000000 60.131088256835938
166.000000000000000 84.000000000000000 60.089721679687500
167.000000000000000 84.000000000000000 60.165584564208984
168.000000000000000 84.000000000000000 60.870208740234375
169.000000000000000 84.000000000000000 59.935710906982422
170.000000000000000 84.000000000000000 59.790447235107422
171.000000000000000 84.000000000000000 59.644294738769531
172.000000000000000 84.000000000000000 60.003768920898438
173.000000000000000 84.000000000000000 59.179153442382812
174.000000000000000 84.000000000000000 59.822921752929688
175.000000000000000 84.000000000000000 59.243751525878906
176.000000000000000 84.000000000000000 59.131839752197266
177.000000000000000 84.000000000000000 59.069953918457031
178.000000000000000 84.000000000000000 58.701885223388672
179.000000000000000 84.000000000000000 57.865715026855469
180.000000000000000 84.000000000000000 57.528057098388672
181.000000000000000 84.000000000000000 57.578662872314453
182.000000000000000 84.000000000000000 56.968723297119141
183.000000000000000 84.000000000000000 56.327480316162109
184.000000000000000 84.000000000000000 55.341705322265625
185.000000000000000 84.000000000000000 53.919025421142578
186.000000000000000 84.000000000000000 53.465423583984375
187.000000000000000 84.000000000000000 53.006164550781250
188.000000000000000 84.000000000000000 52.447658538818359
189.000000000000000 84.000000000000000 52.710517883300781
190.000000000000000 84.000000000000000 52.775402069091797
191.000000000000000 84.000000000000000 53.306583404541016
192.000000000000000 84.000000000000000 52.650329589843750
193.000000000000000 84.000000000000000 52.420299530029297
194.000000000000000 84.000000000000000 51.997093200683594
195.000000000000000 84.000000000000000 51.499504089355469
196.000000000000000 84.000000000000000 51.335620880126953
197.000000000000000 84.000000000000000 50.943191528320312
198.000000000000000 84.000000000000000 50.938148498535156
199.000000000000000 84.000000000000000 50.378021240234375
200.000000000000000 84.000000000000000 50.110931396484375
201.000000000000000 84.000000000000000 49.228534698486328
202.000000000000000 84.000000000000000 49.122825622558594
203.000000000000000 84.000000000000000 48.278675079345703
204.000000000000000 84.000000000000000 48.505268096923828
205.000000000000000 84.000000000000000 47.091911315917969
206.000000000000000 84.000000000000000 47.175128936767578
207.000000000000000 84.000000000000000 46.921287536621094
208.000000000000000 84.000000000000000 45.825157165527344
209.000000000000000 84.000000000000000 43.167297363281250
210.000000000000000 84.000000000000000 41.617694854736328
211.000000000000000 84.000000000000000 40.844657897949219
212.000000000000000 84.000000000000000 42.013725280761719
213.000000000000000 84.000000000000000 41.362274169921875
322.000000000000000 84.000000000000000 40.451202392578125
323.000000000000000 84.000000000000000 42.911514282226562
324.000000000000000 84.000000000000000 42.319080352783203
325.000000000000000 84.000000000000000 43.844535827636719
326.000000000000000 84.000000000000000 43.431400299072266
327.000000000000000 84.000000000000000 43.750709533691406
328.000000000000000 84.000000000000000 43.176689147949219
329.000000000000000 84.000000000000000 43.537303924560547
330.000000000000000 84.000000000000000 43.145248413085938
331.000000000000000 84.000000000000000 43.517704010009766
332.000000000000000 84.000000000000000 44.927513122558594
333.000000000000000 84.000000000000000 45.042694091796875
334.000000000000000 84.000000000000000 46.459865570068359
335.000000000000000 84.000000000000000 46.156665802001953
336.000000000000000 84.000000000000000 46.546188354492188
337.000000000000000 84.000000000000000 46.362045288085938
338.000000000000000 84.000000000000000 47.360191345214844
339.000000000000000 84.000000000000000 48.149040222167969
340.000000000000000 84.000000000000000 48.338981628417969
341.000000000000000 84.000000000000000 49.434921264648438
342.000000000000000 84.000000000000000 49.633392333984375
343.000000000000000 84.000000000000000 49.734180450439453
344.000000000000000 84.000000000000000 50.181415557861328
345.000000000000000 84.000000000000000 50.467338562011719
346.000000000000000 84.000000000000000 50.321613311767578
347.000000000000000 84.000000000000000 51.022247314453125
348.000000000000000 84.000000000000000 50.624271392822266
349.000000000000000 84.000000000000000 50.591526031494141
350.000000000000000 84.000000000000000 50.692443847656250
351.000000000000000 84.000000000000000 50.895294189453125
352.000000000000000 84.000000000000000 50.881980895996094
353.000000000000000 84.000000000000000 51.012672424316406
354.000000000000000 84.000000000000000 50.445510864257812
355.000000000000000 84.000000000000000 50.043708801269531
356.000000000000000 84.000000000000000 50.185832977294922
357.000000000000000 84.000000000000000 51.004806518554688
358.000000000000000 84.000000000000000 51.510608673095703
359.000000000000000 84.000000000000000 50.552722930908203
360.000000000000000 84.000000000000000 51.056613922119141
361.000000000000000 84.000000000000000 50.329666137695312
362.000000000000000 84.000000000000000 50.682209014892578
363.000000000000000 84.000000000000000 51.165119171142578
364.000000000000000 84.000000000000000 51.700538635253906
365.000000000000000 84.000000000000000 53.249050140380859
366.000000000000000 84.000000000000000 52.986927032470703
367.000000000000000 84.000000000000000 52.469310760498047
368.000000000000000 84.000000000000000 52.706760406494141
369.000000000000000 84.000000000000000 52.749286651611328
370.000000000000000 84.000000000000000 52.940059661865234
371.000000000000000 84.000000000000000 53.154006958007812
372.000000000000000 84.000000000000000 53.055488586425781
373.000000000000000 84.000000000000000 52.824653625488281
374.000000000000000 84.000000000000000 53.151195526123047
375.000000000000000 84.000000000000000 53.508728027343750
376.000000000000000 84.000000000000000 53.163551330566406
377.000000000000000 84.000000000000000 53.650512695312500
378.000000000000000 84.000000000000000 53.653942108154297
379.000000000000000 84.000000000000000 53.479457855224609
380.000000000000000 84.000000000000000 53.633102416992188
381.000000000000000 84.000000000000000 53.282291412353516
382.000000000000000 84.000000000000000 53.923599243164062
383.000000000000000 84.000000000000000 53.597953796386719
384.000000000000000 84.000000000000000 54.120559692382812
385.000000000000000 84.000000000000000 54.014770507812500
386.000000000000000 84.000000000000000 54.187782287597656
387.000000000000000 84.000000000000000 53.890472412109375
388.000000000000000 84.000000000000000 53.531074523925781
389.000000000000000 84.000000000000000 53.753074645996094
390.000000000000000 84.000000000000000 53.743888854980469
391.000000000000000 84.000000000000000 53.364044189453125
392.000000000000000 84.000000000000000 53.255226135253906
393.000000000000000 84.000000000000000 53.478767395019531
394.000000000000000 84.000000000000000 53.380084991455078
395.000000000000000 84.000000000000000 53.520126342773438
396.000000000000000 84.000000000000000 53.073646545410156
397.000000000000000 84.000000000000000 53.109245300292969
398.000000000000000 84.000000000000000 52.528491973876953
399.000000000000000 84.000000000000000 51.580539703369141
400.000000000000000 84.000000000000000 50.369678497314453
401.000000000000000 84.000000000000000 52.201034545898438
402.000000000000000 84.000000000000000 50.762752532958984
403.000000000000000 84.000000000000000 51.967487335205078
404.000000000000000 84.000000000000000 51.603153228759766
405.000000000000000 84.000000000000000 51.808677673339844
406.000000000000000 84.000000000000000 50.478576660156250
407.000000000000000 84.000000000000000 51.000759124755859
408.000000000000000 84.000000000000000 51.913513183593750
409.000000000000000 84.000000000000000 52.316192626953125
410.000000000000000 84.000000000000000 52.037563323974609
411.000000000000000 84.000000000000000 51.987167358398438
412.000000000000000 84.000000000000000 50.722339630126953
413.000000000000000 84.000000000000000 51.495426177978516
414.000000000000000 84.000000000000000 49.995048522949219
415.000000000000000 84.000000000000000 48.899429321289062
416.000000000000000 84.000000000000000 49.697761535644531
417.000000000000000 84.000000000000000 47.405071258544922
418.000000000000000 84.000000000000000 46.480125427246094
419.000000000000000 84.000000000000000 45.536834716796875
420.000000000000000 84.000000000000000 42.927288055419922
421.000000000000000 84.000000000000000 44.119327545166016
422.000000000000000 84.000000000000000 40.948535919189453
423.000000000000000 84.000000000000000 40.934032440185547
424.000000000000000 84.000000000000000 39.788757324218750
425.000000000000000 84.000000000000000 38.729076385498047
426.000000000000000 84.000000000000000 38.962776184082031
427.000000000000000 84.000000000000000 22.191177368164062
106.000000000000000 85.000000000000000 44.752319335937500
107.000000000000000 85.000000000000000 46.949314117431641
108.000000000000000 85.000000000000000 49.691719055175781
109.000000000000000 85.000000000000000 48.742126464843750
110.000000000000000 85.000000000000000 47.547042846679688
111.000000000000000 85.000000000000000 49.042911529541016
112.000000000000000 85.000000000000000 49.413669586181641
113.000000000000000 85.000000000000000 49.049285888671875
114.000000000000000 85.000000000000000 50.061859130859375
115.000000000000000 85.000000000000000 50.909137725830078
116.000000000000000 85.000000000000000 51.280384063720703
117.000000000000000 85.000000000000000 51.795574188232422
118.000000000000000 85.000000000000000 51.601814270019531
119.000000000000000 85.000000000000000 51.557422637939453
120.000000000000000 85.000000000000000 51.237598419189453
121.000000000000000 85.000000000000000 50.853637695312500
122.000000000000000 85.000000000000000 51.506706237792969
123.000000000000000 85.000000000000000 51.673851013183594
124.000000000000000 85.000000000000000 52.032073974609375
125.000000000000000 85.000000000000000 51.750335693359375
126.000000000000000 85.000000000000000 52.451930999755859
127.000000000000000 85.000000000000000 52.523826599121094
128.000000000000000 85.000000000000000 53.221515655517578
129.000000000000000 85.000000000000000 53.548297882080078
130.000000000000000 85.000000000000000 54.091243743896484
131.000000000000000 85.000000000000000 54.211513519287109
132.000000000000000 85.000000000000000 54.514175415039062
133.000000000000000 85.000000000000000 54.041042327880859
134.000000000000000 85.000000000000000 54.628860473632812
135.000000000000000 85.000000000000000 55.202091217041016
136.000000000000000 85.000000000000000 54.684688568115234
137.000000000000000 85.000000000000000 54.076221466064453
138.000000000000000 85.000000000000000 55.302547454833984
139.000000000000000 85.000000000000000 55.527347564697266
140.000000000000000 85.000000000000000 57.224826812744141
141.000000000000000 85.000000000000000 56.724765777587891
142.000000000000000 85.000000000000000 57.843677520751953
143.000000000000000 85.000000000000000 57.831150054931641
144.000000000000000 85.000000000000000 57.995182037353516
145.000000000000000 85.000000000000000 57.807155609130859
146.000000000000000 85.000000000000000 58.146026611328125
147.000000000000000 85.000000000000000 58.236854553222656
148.000000000000000 85.000000000000000 58.637458801269531
149.000000000000000 85.000000000000000 58.625839233398438
150.000000000000000 85.000000000000000 58.935981750488281
151.000000000000000 85.000000000000000 59.555850982666016
152.000000000000000 85.000000000000000 59.692394256591797
153.000000000000000 85.000000000000000 59.721374511718750
154.000000000000000 85.000000000000000 60.059532165527344
155.000000000000000 85.000000000000000 60.293960571289062
156.000000000000000 85.000000000000000 60.212638854980469
157.000000000000000 85.000000000000000 59.956382751464844
158.000000000000000 85.000000000000000 60.132102966308594
159.000000000000000 85.000000000000000 59.949920654296875
160.000000000000000 85.000000000000000 60.345626831054688
161.000000000000000 85.000000000000000 60.215526580810547
162.000000000000000 85.000000000000000 60.417922973632812
163.000000000000000 85.000000000000000 60.073551177978516
164.000000000000000 85.000000000000000 59.951786041259766
165.000000000000000 85.000000000000000 60.007644653320312
166.000000000000000 85.000000000000000 60.139583587646484
167.000000000000000 85.000000000000000 59.980663299560547
168.000000000000000 85.000000000000000 60.027729034423828
169.000000000000000 85.000000000000000 59.880226135253906
170.000000000000000 85.000000000000000 60.197292327880859
171.000000000000000 85.000000000000000 59.781932830810547
172.000000000000000 85.000000000000000 59.986675262451172
173.000000000000000 85.000000000000000 59.880424499511719
174.000000000000000 85.000000000000000 60.132522583007812
175.000000000000000 85.000000000000000 59.681697845458984
176.000000000000000 85.000000000000000 59.872936248779297
177.000000000000000 85.000000000000000 59.243820190429688
178.000000000000000 85.000000000000000 59.528079986572266
179.000000000000000 85.000000000000000 57.979633331298828
180.000000000000000 85.000000000000000 58.449752807617188
181.000000000000000 85.000000000000000 58.252361297607422
182.000000000000000 85.000000000000000 56.840488433837891
183.000000000000000 85.000000000000000 56.311908721923828
184.000000000000000 85.000000000000000 55.403583526611328
185.000000000000000 85.000000000000000 55.403175354003906
186.000000000000000 85.000000000000000 53.993270874023438
187.000000000000000 85.000000000000000 52.862709045410156
188.000000000000000 85.000000000000000 52.893642425537109
189.000000000000000 85.000000000000000 52.878562927246094
190.000000000000000 85.000000000000000 52.847934722900391
191.000000000000000 85.000000000000000 53.557067871093750
192.000000000000000 85.000000000000000 52.774826049804688
193.000000000000000 85.000000000000000 53.436084747314453
194.000000000000000 85.000000000000000 51.962818145751953
195.000000000000000 85.000000000000000 51.837364196777344
196.000000000000000 85.000000000000000 51.374885559082031
197.000000000000000 85.000000000000000 51.189865112304688
198.000000000000000 85.000000000000000 51.012035369873047
199.000000000000000 85.000000000000000 51.004219055175781
200.000000000000000 85.000000000000000 49.676734924316406
201.000000000000000 85.000000000000000 48.864997863769531
202.000000000000000 85.000000000000000 48.727951049804688
203.000000000000000 85.000000000000000 48.922904968261719
204.000000000000000 85.000000000000000 48.280681610107422
205.000000000000000 85.000000000000000 46.165111541748047
206.000000000000000 85.000000000000000 47.033824920654297
207.000000000000000 85.000000000000000 45.308761596679688
208.000000000000000 85.000000000000000 45.774482727050781
209.000000000000000 85.000000000000000 42.817176818847656
210.000000000000000 85.000000000000000 41.761089324951172
211.000000000000000 85.000000000000000 40.618522644042969
212.000000000000000 85.000000000000000 39.972366333007812
213.000000000000000 85.000000000000000 38.991760253906250
321.000000000000000 85.000000000000000 42.352474212646484
322.000000000000000 85.000000000000000 41.978923797607422
323.000000000000000 85.000000000000000 40.812740325927734
324.000000000000000 85.000000000000000 41.731811523437500
325.000000000000000 85.000000000000000 43.144760131835938
326.000000000000000 85.000000000000000 42.805461883544922
327.000000000000000 85.000000000000000 43.073600769042969
328.000000000000000 85.000000000000000 43.496818542480469
329.000000000000000 85.000000000000000 43.180213928222656
330.000000000000000 85.000000000000000 44.025794982910156
331.000000000000000 85.000000000000000 44.295276641845703
332.000000000000000 85.000000000000000 45.674430847167969
333.000000000000000 85.000000000000000 45.976932525634766
334.000000000000000 85.000000000000000 47.486770629882812
335.000000000000000 85.000000000000000 47.139743804931641
336.000000000000000 85.000000000000000 46.513744354248047
337.000000000000000 85.000000000000000 48.111713409423828
338.000000000000000 85.000000000000000 47.964332580566406
339.000000000000000 85.000000000000000 47.881763458251953
340.000000000000000 85.000000000000000 48.729839324951172
341.000000000000000 85.000000000000000 49.213584899902344
342.000000000000000 85.000000000000000 49.877349853515625
343.000000000000000 85.000000000000000 50.372524261474609
344.000000000000000 85.000000000000000 50.420410156250000
345.000000000000000 85.000000000000000 50.353206634521484
346.000000000000000 85.000000000000000 50.402088165283203
347.000000000000000 85.000000000000000 50.769386291503906
348.000000000000000 85.000000000000000 50.837059020996094
349.000000000000000 85.000000000000000 51.139053344726562
350.000000000000000 85.000000000000000 51.318908691406250
351.000000000000000 85.000000000000000 51.403846740722656
352.000000000000000 85.000000000000000 51.262718200683594
353.000000000000000 85.000000000000000 51.330711364746094
354.000000000000000 85.000000000000000 51.437366485595703
355.000000000000000 85.000000000000000 50.366138458251953
356.000000000000000 85.000000000000000 50.944828033447266
357.000000000000000 85.000000000000000 50.831054687500000
358.000000000000000 85.000000000000000 51.913211822509766
359.000000000000000 85.000000000000000 50.997520446777344
360.000000000000000 85.000000000000000 51.109302520751953
361.000000000000000 85.000000000000000 51.314277648925781
362.000000000000000 85.000000000000000 51.488033294677734
363.000000000000000 85.000000000000000 50.817741394042969
364.000000000000000 85.000000000000000 51.625442504882812
365.000000000000000 85.000000000000000 53.149547576904297
366.000000000000000 85.000000000000000 52.628784179687500
367.000000000000000 85.000000000000000 51.744392395019531
368.000000000000000 85.000000000000000 52.371715545654297
369.000000000000000 85.000000000000000 52.380111694335938
370.000000000000000 85.000000000000000 53.328319549560547
371.000000000000000 85.000000000000000 52.559486389160156
372.000000000000000 85.000000000000000 53.165519714355469
373.000000000000000 85.000000000000000 53.582679748535156
374.000000000000000 85.000000000000000 53.571193695068359
375.000000000000000 85.000000000000000 53.533573150634766
376.000000000000000 85.000000000000000 53.519416809082031
377.000000000000000 85.000000000000000 53.702384948730469
378.000000000000000 85.000000000000000 53.430507659912109
379.000000000000000 85.000000000000000 53.517921447753906
380.000000000000000 85.000000000000000 53.590141296386719
381.000000000000000 85.000000000000000 54.121299743652344
382.000000000000000 85.000000000000000 53.999862670898438
383.000000000000000 85.000000000000000 53.843311309814453
384.000000000000000 85.000000000000000 53.894550323486328
385.000000000000000 85.000000000000000 53.809291839599609
386.000000000000000 85.000000000000000 53.955394744873047
387.000000000000000 85.000000000000000 53.812587738037109
388.000000000000000 85.000000000000000 54.042781829833984
389.000000000000000 85.000000000000000 54.193771362304688
390.000000000000000 85.000000000000000 53.842987060546875
391.000000000000000 85.000000000000000 53.587715148925781
392.000000000000000 85.000000000000000 53.334400177001953
393.000000000000000 85.000000000000000 53.547885894775391
394.000000000000000 85.000000000000000 54.084926605224609
395.000000000000000 85.000000000000000 53.665405273437500
396.000000000000000 85.000000000000000 53.311153411865234
397.000000000000000 85.000000000000000 53.400020599365234
398.000000000000000 85.000000000000000 53.210395812988281
399.000000000000000 85.000000000000000 51.847274780273438
400.000000000000000 85.000000000000000 51.494258880615234
401.000000000000000 85.000000000000000 51.936561584472656
402.000000000000000 85.000000000000000 51.746807098388672
403.000000000000000 85.000000000000000 52.597694396972656
404.000000000000000 85.000000000000000 51.790557861328125
405.000000000000000 85.000000000000000 51.236354827880859
406.000000000000000 85.000000000000000 51.405387878417969
407.000000000000000 85.000000000000000 51.242004394531250
408.000000000000000 85.000000000000000 50.719665527343750
409.000000000000000 85.000000000000000 51.600521087646484
410.000000000000000 85.000000000000000 50.485328674316406
411.000000000000000 85.000000000000000 50.770355224609375
412.000000000000000 85.000000000000000 50.802909851074219
413.000000000000000 85.000000000000000 51.011856079101562
414.000000000000000 85.000000000000000 49.805416107177734
415.000000000000000 85.000000000000000 49.758785247802734
416.000000000000000 85.000000000000000 47.909832000732422
417.000000000000000 85.000000000000000 48.004734039306641
418.000000000000000 85.000000000000000 45.448749542236328
419.000000000000000 85.000000000000000 44.070384979248047
420.000000000000000 85.000000000000000 44.893463134765625
421.000000000000000 85.000000000000000 44.009765625000000
422.000000000000000 85.000000000000000 42.984584808349609
423.000000000000000 85.000000000000000 41.141162872314453
424.000000000000000 85.000000000000000 40.670280456542969
425.000000000000000 85.000000000000000 38.292415618896484
426.000000000000000 85.000000000000000 38.111438751220703
427.000000000000000 85.000000000000000 15.533231735229492
106.000000000000000 86.000000000000000 44.601139068603516
107.000000000000000 86.000000000000000 46.214542388916016
108.000000000000000 86.000000000000000 48.860603332519531
109.000000000000000 86.000000000000000 48.641479492187500
110.000000000000000 86.000000000000000 48.089809417724609
111.000000000000000 86.000000000000000 46.737056732177734
112.000000000000000 86.000000000000000 46.880905151367188
113.000000000000000 86.000000000000000 48.356456756591797
114.000000000000000 86.000000000000000 49.016380310058594
115.000000000000000 86.000000000000000 49.992771148681641
116.000000000000000 86.000000000000000 50.768371582031250
117.000000000000000 86.000000000000000 50.261238098144531
118.000000000000000 86.000000000000000 51.330089569091797
119.000000000000000 86.000000000000000 50.944438934326172
120.000000000000000 86.000000000000000 51.127182006835938
121.000000000000000 86.000000000000000 50.747585296630859
122.000000000000000 86.000000000000000 51.244163513183594
