ply
format ascii 1.0
element vertex 825
property double x
property double y
property double z
end_header
288.000000000000000 84.000000000000000 49.423824310302734
289.000000000000000 84.000000000000000 35.771369934082031
290.000000000000000 84.000000000000000 35.726032257080078
291.000000000000000 84.000000000000000 35.625083923339844
292.000000000000000 84.000000000000000 35.538776397705078
293.000000000000000 84.000000000000000 35.466209411621094
294.000000000000000 84.000000000000000 35.351600646972656
295.000000000000000 84.000000000000000 35.136512756347656
296.000000000000000 84.000000000000000 34.905109405517578
297.000000000000000 84.000000000000000 34.714088439941406
298.000000000000000 84.000000000000000 34.502883911132812
299.000000000000000 84.000000000000000 34.184780120849609
300.000000000000000 84.000000000000000 33.935436248779297
301.000000000000000 84.000000000000000 33.778961181640625
302.000000000000000 84.000000000000000 33.562992095947266
303.000000000000000 84.000000000000000 33.216960906982422
304.000000000000000 84.000000000000000 32.821109771728516
305.000000000000000 84.000000000000000 32.444042205810547
306.000000000000000 84.000000000000000 32.106616973876953
307.000000000000000 84.000000000000000 31.616827011108398
308.000000000000000 84.000000000000000 30.939064025878906
309.000000000000000 84.000000000000000 30.370843887329102
310.000000000000000 84.000000000000000 29.947484970092773
311.000000000000000 84.000000000000000 29.643369674682617
312.000000000000000 84.000000000000000 29.171070098876953
313.000000000000000 84.000000000000000 28.543252944946289
314.000000000000000 84.000000000000000 27.743999481201172
315.000000000000000 84.000000000000000 26.979164123535156
316.000000000000000 84.000000000000000 26.193920135498047
317.000000000000000 84.000000000000000 10.544848442077637
318.000000000000000 84.000000000000000 9.613471031188965
319.000000000000000 84.000000000000000 8.199044227600098
320.000000000000000 84.000000000000000 21.470739364624023
226.000000000000000 85.000000000000000 53.755729675292969
227.000000000000000 85.000000000000000 54.275382995605469
228.000000000000000 85.000000000000000 54.826732635498047
229.000000000000000 85.000000000000000 55.442207336425781
230.000000000000000 85.000000000000000 56.514533996582031
231.000000000000000 85.000000000000000 56.981781005859375
232.000000000000000 85.000000000000000 57.600009918212891
233.000000000000000 85.000000000000000 58.009189605712891
234.000000000000000 85.000000000000000 58.163734436035156
235.000000000000000 85.000000000000000 58.351726531982422
236.000000000000000 85.000000000000000 58.519485473632812
237.000000000000000 85.000000000000000 58.589427947998047
238.000000000000000 85.000000000000000 58.646224975585938
239.000000000000000 85.000000000000000 58.645168304443359
240.000000000000000 85.000000000000000 58.639976501464844
241.000000000000000 85.000000000000000 58.646053314208984
242.000000000000000 85.000000000000000 58.686744689941406
243.000000000000000 85.000000000000000 58.712890625000000
244.000000000000000 85.000000000000000 58.702472686767578
245.000000000000000 85.000000000000000 58.673877716064453
246.000000000000000 85.000000000000000 58.671371459960938
247.000000000000000 85.000000000000000 58.670368194580078
248.000000000000000 85.000000000000000 58.653736114501953
249.000000000000000 85.000000000000000 58.611324310302734
250.000000000000000 85.000000000000000 58.599292755126953
251.000000000000000 85.000000000000000 58.568054199218750
252.000000000000000 85.000000000000000 58.515197753906250
253.000000000000000 85.000000000000000 58.449546813964844
254.000000000000000 85.000000000000000 58.364974975585938
255.000000000000000 85.000000000000000 58.309646606445312
256.000000000000000 85.000000000000000 58.241256713867188
257.000000000000000 85.000000000000000 58.165683746337891
258.000000000000000 85.000000000000000 58.076461791992188
259.000000000000000 85.000000000000000 57.990375518798828
260.000000000000000 85.000000000000000 57.892681121826172
261.000000000000000 85.000000000000000 57.783428192138672
262.000000000000000 85.000000000000000 57.671169281005859
263.000000000000000 85.000000000000000 57.570835113525391
264.000000000000000 85.000000000000000 57.478424072265625
265.000000000000000 85.000000000000000 57.322345733642578
266.000000000000000 85.000000000000000 57.112335205078125
267.000000000000000 85.000000000000000 56.983112335205078
268.000000000000000 85.000000000000000 56.860198974609375
269.000000000000000 85.000000000000000 56.705982208251953
270.000000000000000 85.000000000000000 56.531185150146484
271.000000000000000 85.000000000000000 56.288871765136719
272.000000000000000 85.000000000000000 56.132656097412109
273.000000000000000 85.000000000000000 55.948078155517578
274.000000000000000 85.000000000000000 55.752510070800781
275.000000000000000 85.000000000000000 55.479263305664062
276.000000000000000 85.000000000000000 54.885494232177734
277.000000000000000 85.000000000000000 54.049064636230469
278.000000000000000 85.000000000000000 52.414352416992188
279.000000000000000 85.000000000000000 51.282329559326172
280.000000000000000 85.000000000000000 50.867797851562500
281.000000000000000 85.000000000000000 50.756488800048828
282.000000000000000 85.000000000000000 50.670009613037109
283.000000000000000 85.000000000000000 50.475952148437500
284.000000000000000 85.000000000000000 50.180530548095703
285.000000000000000 85.000000000000000 49.871730804443359
286.000000000000000 85.000000000000000 36.109256744384766
287.000000000000000 85.000000000000000 35.697582244873047
288.000000000000000 85.000000000000000 35.397045135498047
289.000000000000000 85.000000000000000 35.248748779296875
290.000000000000000 85.000000000000000 35.243343353271484
291.000000000000000 85.000000000000000 35.176742553710938
292.000000000000000 85.000000000000000 35.095859527587891
293.000000000000000 85.000000000000000 34.982501983642578
294.000000000000000 85.000000000000000 34.791267395019531
295.000000000000000 85.000000000000000 34.595726013183594
296.000000000000000 85.000000000000000 34.395133972167969
297.000000000000000 85.000000000000000 34.168945312500000
298.000000000000000 85.000000000000000 33.970268249511719
299.000000000000000 85.000000000000000 33.757835388183594
300.000000000000000 85.000000000000000 33.523517608642578
301.000000000000000 85.000000000000000 33.284191131591797
302.000000000000000 85.000000000000000 33.028076171875000
303.000000000000000 85.000000000000000 32.686748504638672
304.000000000000000 85.000000000000000 32.319999694824219
305.000000000000000 85.000000000000000 31.998151779174805
306.000000000000000 85.000000000000000 31.449745178222656
307.000000000000000 85.000000000000000 30.815725326538086
308.000000000000000 85.000000000000000 30.151794433593750
309.000000000000000 85.000000000000000 29.763431549072266
310.000000000000000 85.000000000000000 29.464263916015625
311.000000000000000 85.000000000000000 29.102653503417969
312.000000000000000 85.000000000000000 28.476169586181641
313.000000000000000 85.000000000000000 27.841907501220703
314.000000000000000 85.000000000000000 27.064441680908203
315.000000000000000 85.000000000000000 26.215818405151367
316.000000000000000 85.000000000000000 25.448471069335938
317.000000000000000 85.000000000000000 24.566635131835938
318.000000000000000 85.000000000000000 23.485664367675781
319.000000000000000 85.000000000000000 21.735950469970703
227.000000000000000 86.000000000000000 53.895824432373047
228.000000000000000 86.000000000000000 54.582965850830078
229.000000000000000 86.000000000000000 55.242527008056641
230.000000000000000 86.000000000000000 56.214374542236328
231.000000000000000 86.000000000000000 56.939781188964844
232.000000000000000 86.000000000000000 57.464504241943359
233.000000000000000 86.000000000000000 57.853752136230469
234.000000000000000 86.000000000000000 58.071338653564453
235.000000000000000 86.000000000000000 58.245594024658203
236.000000000000000 86.000000000000000 58.396175384521484
237.000000000000000 86.000000000000000 58.468254089355469
238.000000000000000 86.000000000000000 58.507396697998047
239.000000000000000 86.000000000000000 58.518318176269531
240.000000000000000 86.000000000000000 58.526165008544922
241.000000000000000 86.000000000000000 58.541225433349609
242.000000000000000 86.000000000000000 58.577747344970703
243.000000000000000 86.000000000000000 58.604331970214844
244.000000000000000 86.000000000000000 58.598976135253906
245.000000000000000 86.000000000000000 58.560752868652344
246.000000000000000 86.000000000000000 58.555412292480469
247.000000000000000 86.000000000000000 58.568328857421875
248.000000000000000 86.000000000000000 58.568016052246094
249.000000000000000 86.000000000000000 58.534187316894531
250.000000000000000 86.000000000000000 58.509353637695312
251.000000000000000 86.000000000000000 58.493301391601562
252.000000000000000 86.000000000000000 58.439804077148438
253.000000000000000 86.000000000000000 58.360263824462891
254.000000000000000 86.000000000000000 58.293209075927734
255.000000000000000 86.000000000000000 58.245925903320312
256.000000000000000 86.000000000000000 58.151439666748047
257.000000000000000 86.000000000000000 58.047142028808594
258.000000000000000 86.000000000000000 57.960853576660156
259.000000000000000 86.000000000000000 57.884178161621094
260.000000000000000 86.000000000000000 57.799495697021484
261.000000000000000 86.000000000000000 57.695964813232422
262.000000000000000 86.000000000000000 57.594421386718750
263.000000000000000 86.000000000000000 57.503730773925781
264.000000000000000 86.000000000000000 57.335063934326172
265.000000000000000 86.000000000000000 57.105659484863281
266.000000000000000 86.000000000000000 57.001659393310547
267.000000000000000 86.000000000000000 56.867877960205078
268.000000000000000 86.000000000000000 56.713146209716797
269.000000000000000 86.000000000000000 56.558757781982422
270.000000000000000 86.000000000000000 56.353328704833984
271.000000000000000 86.000000000000000 56.146953582763672
272.000000000000000 86.000000000000000 56.040702819824219
273.000000000000000 86.000000000000000 55.782108306884766
274.000000000000000 86.000000000000000 55.576503753662109
275.000000000000000 86.000000000000000 55.256011962890625
276.000000000000000 86.000000000000000 54.281280517578125
277.000000000000000 86.000000000000000 52.416168212890625
278.000000000000000 86.000000000000000 51.162105560302734
279.000000000000000 86.000000000000000 50.608669281005859
280.000000000000000 86.000000000000000 50.291885375976562
281.000000000000000 86.000000000000000 50.120307922363281
282.000000000000000 86.000000000000000 49.980186462402344
283.000000000000000 86.000000000000000 49.853878021240234
284.000000000000000 86.000000000000000 49.673488616943359
285.000000000000000 86.000000000000000 49.402984619140625
286.000000000000000 86.000000000000000 35.583194732666016
287.000000000000000 86.000000000000000 35.202972412109375
288.000000000000000 86.000000000000000 34.973880767822266
289.000000000000000 86.000000000000000 34.928764343261719
290.000000000000000 86.000000000000000 34.880634307861328
291.000000000000000 86.000000000000000 34.681510925292969
292.000000000000000 86.000000000000000 34.594337463378906
293.000000000000000 86.000000000000000 34.501598358154297
294.000000000000000 86.000000000000000 34.275627136230469
295.000000000000000 86.000000000000000 34.067447662353516
296.000000000000000 86.000000000000000 33.848815917968750
297.000000000000000 86.000000000000000 33.711429595947266
298.000000000000000 86.000000000000000 33.524436950683594
299.000000000000000 86.000000000000000 33.368961334228516
300.000000000000000 86.000000000000000 33.082324981689453
301.000000000000000 86.000000000000000 32.752075195312500
302.000000000000000 86.000000000000000 32.482387542724609
303.000000000000000 86.000000000000000 32.180408477783203
304.000000000000000 86.000000000000000 31.834236145019531
305.000000000000000 86.000000000000000 31.488071441650391
306.000000000000000 86.000000000000000 30.829366683959961
307.000000000000000 86.000000000000000 30.200834274291992
308.000000000000000 86.000000000000000 29.657953262329102
309.000000000000000 86.000000000000000 29.385301589965820
310.000000000000000 86.000000000000000 28.948102951049805
311.000000000000000 86.000000000000000 28.478191375732422
312.000000000000000 86.000000000000000 27.831130981445312
313.000000000000000 86.000000000000000 27.321571350097656
314.000000000000000 86.000000000000000 26.429380416870117
315.000000000000000 86.000000000000000 25.379076004028320
316.000000000000000 86.000000000000000 24.502834320068359
317.000000000000000 86.000000000000000 23.513038635253906
318.000000000000000 86.000000000000000 22.092336654663086
229.000000000000000 87.000000000000000 55.043518066406250
230.000000000000000 87.000000000000000 55.860713958740234
231.000000000000000 87.000000000000000 57.551082611083984
232.000000000000000 87.000000000000000 57.781749725341797
233.000000000000000 87.000000000000000 57.689483642578125
234.000000000000000 87.000000000000000 57.887123107910156
235.000000000000000 87.000000000000000 58.095878601074219
236.000000000000000 87.000000000000000 58.233726501464844
237.000000000000000 87.000000000000000 58.350666046142578
238.000000000000000 87.000000000000000 58.391929626464844
239.000000000000000 87.000000000000000 58.406093597412109
240.000000000000000 87.000000000000000 58.405105590820312
241.000000000000000 87.000000000000000 58.422084808349609
242.000000000000000 87.000000000000000 58.461093902587891
243.000000000000000 87.000000000000000 58.487094879150391
244.000000000000000 87.000000000000000 58.479122161865234
245.000000000000000 87.000000000000000 58.455821990966797
246.000000000000000 87.000000000000000 58.457225799560547
247.000000000000000 87.000000000000000 58.479019165039062
248.000000000000000 87.000000000000000 58.478694915771484
249.000000000000000 87.000000000000000 58.447685241699219
250.000000000000000 87.000000000000000 58.411514282226562
251.000000000000000 87.000000000000000 58.370159149169922
252.000000000000000 87.000000000000000 58.306018829345703
253.000000000000000 87.000000000000000 58.241741180419922
254.000000000000000 87.000000000000000 58.204006195068359
255.000000000000000 87.000000000000000 58.144187927246094
256.000000000000000 87.000000000000000 58.029022216796875
257.000000000000000 87.000000000000000 57.920337677001953
258.000000000000000 87.000000000000000 57.846225738525391
259.000000000000000 87.000000000000000 57.781085968017578
260.000000000000000 87.000000000000000 57.692634582519531
261.000000000000000 87.000000000000000 57.567939758300781
262.000000000000000 87.000000000000000 57.460594177246094
263.000000000000000 87.000000000000000 57.322544097900391
264.000000000000000 87.000000000000000 57.136028289794922
265.000000000000000 87.000000000000000 56.978515625000000
266.000000000000000 87.000000000000000 56.919013977050781
267.000000000000000 87.000000000000000 56.750682830810547
268.000000000000000 87.000000000000000 56.606063842773438
269.000000000000000 87.000000000000000 56.361915588378906
270.000000000000000 87.000000000000000 56.183250427246094
271.000000000000000 87.000000000000000 56.054740905761719
272.000000000000000 87.000000000000000 55.888118743896484
273.000000000000000 87.000000000000000 55.573619842529297
274.000000000000000 87.000000000000000 55.346736907958984
275.000000000000000 87.000000000000000 54.653347015380859
276.000000000000000 87.000000000000000 52.428325653076172
277.000000000000000 87.000000000000000 50.660991668701172
278.000000000000000 87.000000000000000 50.120685577392578
279.000000000000000 87.000000000000000 49.873062133789062
280.000000000000000 87.000000000000000 49.695297241210938
281.000000000000000 87.000000000000000 49.491573333740234
282.000000000000000 87.000000000000000 49.382316589355469
283.000000000000000 87.000000000000000 49.201660156250000
284.000000000000000 87.000000000000000 48.985279083251953
285.000000000000000 87.000000000000000 35.297241210937500
286.000000000000000 87.000000000000000 35.057506561279297
287.000000000000000 87.000000000000000 34.795673370361328
288.000000000000000 87.000000000000000 34.640415191650391
289.000000000000000 87.000000000000000 34.524990081787109
290.000000000000000 87.000000000000000 34.392429351806641
291.000000000000000 87.000000000000000 34.186370849609375
292.000000000000000 87.000000000000000 34.130702972412109
293.000000000000000 87.000000000000000 33.972579956054688
294.000000000000000 87.000000000000000 33.771793365478516
295.000000000000000 87.000000000000000 33.575164794921875
296.000000000000000 87.000000000000000 33.332851409912109
297.000000000000000 87.000000000000000 33.266387939453125
298.000000000000000 87.000000000000000 33.074417114257812
299.000000000000000 87.000000000000000 32.886154174804688
300.000000000000000 87.000000000000000 32.575584411621094
301.000000000000000 87.000000000000000 32.256885528564453
302.000000000000000 87.000000000000000 31.938850402832031
303.000000000000000 87.000000000000000 31.569152832031250
304.000000000000000 87.000000000000000 31.141489028930664
305.000000000000000 87.000000000000000 30.774847030639648
306.000000000000000 87.000000000000000 30.151170730590820
307.000000000000000 87.000000000000000 29.615083694458008
308.000000000000000 87.000000000000000 29.163036346435547
309.000000000000000 87.000000000000000 28.768600463867188
310.000000000000000 87.000000000000000 28.322423934936523
311.000000000000000 87.000000000000000 27.895887374877930
312.000000000000000 87.000000000000000 27.357574462890625
313.000000000000000 87.000000000000000 26.690301895141602
314.000000000000000 87.000000000000000 25.563156127929688
315.000000000000000 87.000000000000000 24.398960113525391
316.000000000000000 87.000000000000000 23.378673553466797
317.000000000000000 87.000000000000000 22.071037292480469
229.000000000000000 88.000000000000000 54.718772888183594
230.000000000000000 88.000000000000000 55.710411071777344
231.000000000000000 88.000000000000000 56.553539276123047
232.000000000000000 88.000000000000000 58.628410339355469
233.000000000000000 88.000000000000000 57.810272216796875
234.000000000000000 88.000000000000000 57.592636108398438
235.000000000000000 88.000000000000000 57.857528686523438
236.000000000000000 88.000000000000000 58.069305419921875
237.000000000000000 88.000000000000000 58.243457794189453
238.000000000000000 88.000000000000000 58.291587829589844
239.000000000000000 88.000000000000000 58.287803649902344
240.000000000000000 88.000000000000000 58.274375915527344
241.000000000000000 88.000000000000000 58.302986145019531
242.000000000000000 88.000000000000000 58.347347259521484
243.000000000000000 88.000000000000000 58.359966278076172
244.000000000000000 88.000000000000000 58.366851806640625
245.000000000000000 88.000000000000000 58.360710144042969
246.000000000000000 88.000000000000000 58.338466644287109
247.000000000000000 88.000000000000000 58.362575531005859
248.000000000000000 88.000000000000000 58.360416412353516
249.000000000000000 88.000000000000000 58.318664550781250
250.000000000000000 88.000000000000000 58.282138824462891
251.000000000000000 88.000000000000000 58.223106384277344
252.000000000000000 88.000000000000000 58.174743652343750
253.000000000000000 88.000000000000000 58.129653930664062
254.000000000000000 88.000000000000000 58.072124481201172
255.000000000000000 88.000000000000000 58.022365570068359
256.000000000000000 88.000000000000000 57.887569427490234
257.000000000000000 88.000000000000000 57.788791656494141
258.000000000000000 88.000000000000000 57.730010986328125
259.000000000000000 88.000000000000000 57.676818847656250
260.000000000000000 88.000000000000000 57.586345672607422
261.000000000000000 88.000000000000000 57.455848693847656
262.000000000000000 88.000000000000000 57.281166076660156
263.000000000000000 88.000000000000000 57.116077423095703
264.000000000000000 88.000000000000000 57.011772155761719
265.000000000000000 88.000000000000000 56.881622314453125
266.000000000000000 88.000000000000000 56.800174713134766
267.000000000000000 88.000000000000000 56.657966613769531
268.000000000000000 88.000000000000000 56.443897247314453
269.000000000000000 88.000000000000000 56.185993194580078
270.000000000000000 88.000000000000000 56.059822082519531
271.000000000000000 88.000000000000000 55.862136840820312
272.000000000000000 88.000000000000000 55.610229492187500
273.000000000000000 88.000000000000000 55.286838531494141
274.000000000000000 88.000000000000000 55.003894805908203
275.000000000000000 88.000000000000000 52.870521545410156
276.000000000000000 88.000000000000000 50.413738250732422
277.000000000000000 88.000000000000000 49.798599243164062
278.000000000000000 88.000000000000000 49.445232391357422
279.000000000000000 88.000000000000000 49.163776397705078
280.000000000000000 88.000000000000000 49.003627777099609
281.000000000000000 88.000000000000000 48.897697448730469
282.000000000000000 88.000000000000000 48.812053680419922
283.000000000000000 88.000000000000000 48.576633453369141
284.000000000000000 88.000000000000000 34.828342437744141
285.000000000000000 88.000000000000000 34.677169799804688
286.000000000000000 88.000000000000000 34.529968261718750
287.000000000000000 88.000000000000000 34.338081359863281
288.000000000000000 88.000000000000000 34.209438323974609
289.000000000000000 88.000000000000000 34.010879516601562
290.000000000000000 88.000000000000000 33.822158813476562
291.000000000000000 88.000000000000000 33.664806365966797
292.000000000000000 88.000000000000000 33.549728393554688
293.000000000000000 88.000000000000000 33.428997039794922
294.000000000000000 88.000000000000000 33.223926544189453
295.000000000000000 88.000000000000000 33.025588989257812
296.000000000000000 88.000000000000000 32.816589355468750
297.000000000000000 88.000000000000000 32.751571655273438
298.000000000000000 88.000000000000000 32.541412353515625
299.000000000000000 88.000000000000000 32.316082000732422
300.000000000000000 88.000000000000000 31.983137130737305
301.000000000000000 88.000000000000000 31.660961151123047
302.000000000000000 88.000000000000000 31.344800949096680
303.000000000000000 88.000000000000000 30.954658508300781
304.000000000000000 88.000000000000000 30.452682495117188
305.000000000000000 88.000000000000000 30.041679382324219
306.000000000000000 88.000000000000000 29.474706649780273
307.000000000000000 88.000000000000000 28.991064071655273
308.000000000000000 88.000000000000000 28.613069534301758
309.000000000000000 88.000000000000000 28.097534179687500
310.000000000000000 88.000000000000000 27.694204330444336
311.000000000000000 88.000000000000000 27.235004425048828
312.000000000000000 88.000000000000000 26.675977706909180
313.000000000000000 88.000000000000000 25.708656311035156
314.000000000000000 88.000000000000000 24.495822906494141
315.000000000000000 88.000000000000000 23.533901214599609
316.000000000000000 88.000000000000000 22.629650115966797
230.000000000000000 89.000000000000000 55.623760223388672
231.000000000000000 89.000000000000000 56.695190429687500
232.000000000000000 89.000000000000000 54.233821868896484
233.000000000000000 89.000000000000000 56.958614349365234
234.000000000000000 89.000000000000000 57.302032470703125
235.000000000000000 89.000000000000000 57.645046234130859
236.000000000000000 89.000000000000000 57.866771697998047
237.000000000000000 89.000000000000000 58.136882781982422
238.000000000000000 89.000000000000000 58.219738006591797
239.000000000000000 89.000000000000000 58.202411651611328
240.000000000000000 89.000000000000000 58.186515808105469
241.000000000000000 89.000000000000000 58.198207855224609
242.000000000000000 89.000000000000000 58.251972198486328
243.000000000000000 89.000000000000000 58.268684387207031
244.000000000000000 89.000000000000000 58.281681060791016
245.000000000000000 89.000000000000000 58.262390136718750
246.000000000000000 89.000000000000000 58.221435546875000
247.000000000000000 89.000000000000000 58.244350433349609
248.000000000000000 89.000000000000000 58.235206604003906
249.000000000000000 89.000000000000000 58.170364379882812
250.000000000000000 89.000000000000000 58.139530181884766
251.000000000000000 89.000000000000000 58.092571258544922
252.000000000000000 89.000000000000000 58.046302795410156
253.000000000000000 89.000000000000000 57.987178802490234
254.000000000000000 89.000000000000000 57.912624359130859
255.000000000000000 89.000000000000000 57.857326507568359
256.000000000000000 89.000000000000000 57.749290466308594
257.000000000000000 89.000000000000000 57.652027130126953
258.000000000000000 89.000000000000000 57.593265533447266
259.000000000000000 89.000000000000000 57.547344207763672
260.000000000000000 89.000000000000000 57.446113586425781
261.000000000000000 89.000000000000000 57.277568817138672
262.000000000000000 89.000000000000000 57.061706542968750
263.000000000000000 89.000000000000000 56.931182861328125
264.000000000000000 89.000000000000000 56.879512786865234
265.000000000000000 89.000000000000000 56.749973297119141
266.000000000000000 89.000000000000000 56.639163970947266
267.000000000000000 89.000000000000000 56.498104095458984
268.000000000000000 89.000000000000000 56.308944702148438
269.000000000000000 89.000000000000000 56.058864593505859
270.000000000000000 89.000000000000000 55.862941741943359
271.000000000000000 89.000000000000000 55.592639923095703
272.000000000000000 89.000000000000000 55.186637878417969
273.000000000000000 89.000000000000000 54.909839630126953
274.000000000000000 89.000000000000000 53.568962097167969
275.000000000000000 89.000000000000000 50.057838439941406
276.000000000000000 89.000000000000000 49.293174743652344
277.000000000000000 89.000000000000000 48.905994415283203
278.000000000000000 89.000000000000000 48.926845550537109
279.000000000000000 89.000000000000000 48.592166900634766
280.000000000000000 89.000000000000000 48.495414733886719
281.000000000000000 89.000000000000000 48.366123199462891
282.000000000000000 89.000000000000000 48.153335571289062
283.000000000000000 89.000000000000000 48.006126403808594
284.000000000000000 89.000000000000000 34.272140502929688
285.000000000000000 89.000000000000000 34.070289611816406
286.000000000000000 89.000000000000000 33.970054626464844
287.000000000000000 89.000000000000000 33.778846740722656
288.000000000000000 89.000000000000000 33.558765411376953
289.000000000000000 89.000000000000000 33.381999969482422
290.000000000000000 89.000000000000000 33.213752746582031
291.000000000000000 89.000000000000000 33.120483398437500
292.000000000000000 89.000000000000000 32.983406066894531
293.000000000000000 89.000000000000000 32.831417083740234
294.000000000000000 89.000000000000000 32.643112182617188
295.000000000000000 89.000000000000000 32.509059906005859
296.000000000000000 89.000000000000000 32.323539733886719
297.000000000000000 89.000000000000000 32.140960693359375
298.000000000000000 89.000000000000000 31.922382354736328
299.000000000000000 89.000000000000000 31.645336151123047
300.000000000000000 89.000000000000000 31.320573806762695
301.000000000000000 89.000000000000000 31.055320739746094
302.000000000000000 89.000000000000000 30.675237655639648
303.000000000000000 89.000000000000000 30.254261016845703
304.000000000000000 89.000000000000000 29.843517303466797
305.000000000000000 89.000000000000000 29.428325653076172
306.000000000000000 89.000000000000000 28.901123046875000
307.000000000000000 89.000000000000000 28.491134643554688
308.000000000000000 89.000000000000000 27.976495742797852
309.000000000000000 89.000000000000000 27.511896133422852
310.000000000000000 89.000000000000000 26.931825637817383
311.000000000000000 89.000000000000000 26.323762893676758
312.000000000000000 89.000000000000000 25.651226043701172
313.000000000000000 89.000000000000000 24.481161117553711
314.000000000000000 89.000000000000000 23.553833007812500
315.000000000000000 89.000000000000000 22.856405258178711
316.000000000000000 89.000000000000000 21.404525756835938
229.000000000000000 90.000000000000000 45.742046356201172
230.000000000000000 90.000000000000000 55.201923370361328
231.000000000000000 90.000000000000000 55.803989410400391
232.000000000000000 90.000000000000000 54.202037811279297
233.000000000000000 90.000000000000000 56.059963226318359
234.000000000000000 90.000000000000000 56.928733825683594
235.000000000000000 90.000000000000000 57.341670989990234
236.000000000000000 90.000000000000000 57.624370574951172
237.000000000000000 90.000000000000000 57.986225128173828
238.000000000000000 90.000000000000000 58.114036560058594
239.000000000000000 90.000000000000000 58.122726440429688
240.000000000000000 90.000000000000000 58.126037597656250
241.000000000000000 90.000000000000000 58.127738952636719
242.000000000000000 90.000000000000000 58.168392181396484
243.000000000000000 90.000000000000000 58.160984039306641
244.000000000000000 90.000000000000000 58.192031860351562
245.000000000000000 90.000000000000000 58.153984069824219
246.000000000000000 90.000000000000000 58.108180999755859
247.000000000000000 90.000000000000000 58.089649200439453
248.000000000000000 90.000000000000000 58.051986694335938
249.000000000000000 90.000000000000000 57.973266601562500
250.000000000000000 90.000000000000000 57.957077026367188
251.000000000000000 90.000000000000000 57.935066223144531
252.000000000000000 90.000000000000000 57.893466949462891
253.000000000000000 90.000000000000000 57.852958679199219
254.000000000000000 90.000000000000000 57.757350921630859
255.000000000000000 90.000000000000000 57.677127838134766
256.000000000000000 90.000000000000000 57.571647644042969
257.000000000000000 90.000000000000000 57.476074218750000
258.000000000000000 90.000000000000000 57.433910369873047
259.000000000000000 90.000000000000000 57.342292785644531
260.000000000000000 90.000000000000000 57.225028991699219
261.000000000000000 90.000000000000000 57.056945800781250
262.000000000000000 90.000000000000000 56.922969818115234
263.000000000000000 90.000000000000000 56.815307617187500
264.000000000000000 90.000000000000000 56.731243133544922
265.000000000000000 90.000000000000000 56.571735382080078
266.000000000000000 90.000000000000000 56.438224792480469
267.000000000000000 90.000000000000000 56.236579895019531
268.000000000000000 90.000000000000000 56.072261810302734
269.000000000000000 90.000000000000000 55.822513580322266
270.000000000000000 90.000000000000000 55.461456298828125
271.000000000000000 90.000000000000000 55.157894134521484
272.000000000000000 90.000000000000000 54.761825561523438
273.000000000000000 90.000000000000000 54.229339599609375
274.000000000000000 90.000000000000000 49.787258148193359
275.000000000000000 90.000000000000000 48.887699127197266
276.000000000000000 90.000000000000000 48.488254547119141
277.000000000000000 90.000000000000000 48.309703826904297
278.000000000000000 90.000000000000000 48.281093597412109
279.000000000000000 90.000000000000000 48.026943206787109
280.000000000000000 90.000000000000000 47.969963073730469
281.000000000000000 90.000000000000000 47.705425262451172
282.000000000000000 90.000000000000000 47.445007324218750
283.000000000000000 90.000000000000000 47.322956085205078
284.000000000000000 90.000000000000000 33.603271484375000
285.000000000000000 90.000000000000000 33.441368103027344
286.000000000000000 90.000000000000000 33.276870727539062
287.000000000000000 90.000000000000000 33.096828460693359
288.000000000000000 90.000000000000000 32.952533721923828
289.000000000000000 90.000000000000000 32.770633697509766
290.000000000000000 90.000000000000000 32.605098724365234
291.000000000000000 90.000000000000000 32.467021942138672
292.000000000000000 90.000000000000000 32.365756988525391
293.000000000000000 90.000000000000000 32.190589904785156
294.000000000000000 90.000000000000000 32.016445159912109
295.000000000000000 90.000000000000000 31.858806610107422
296.000000000000000 90.000000000000000 31.691938400268555
297.000000000000000 90.000000000000000 31.482463836669922
298.000000000000000 90.000000000000000 31.308298110961914
299.000000000000000 90.000000000000000 30.979171752929688
300.000000000000000 90.000000000000000 30.636135101318359
301.000000000000000 90.000000000000000 30.346639633178711
302.000000000000000 90.000000000000000 29.940067291259766
303.000000000000000 90.000000000000000 29.515819549560547
304.000000000000000 90.000000000000000 29.058778762817383
305.000000000000000 90.000000000000000 28.667274475097656
306.000000000000000 90.000000000000000 28.138277053833008
307.000000000000000 90.000000000000000 27.672496795654297
308.000000000000000 90.000000000000000 27.147069931030273
309.000000000000000 90.000000000000000 26.722173690795898
310.000000000000000 90.000000000000000 26.125164031982422
311.000000000000000 90.000000000000000 25.378570556640625
312.000000000000000 90.000000000000000 24.499109268188477
313.000000000000000 90.000000000000000 23.572006225585938
314.000000000000000 90.000000000000000 23.076448440551758
315.000000000000000 90.000000000000000 21.974178314208984
231.000000000000000 91.000000000000000 43.563625335693359
232.000000000000000 91.000000000000000 42.049160003662109
233.000000000000000 91.000000000000000 43.238075256347656
234.000000000000000 91.000000000000000 56.522052764892578
235.000000000000000 91.000000000000000 57.042343139648438
236.000000000000000 91.000000000000000 57.472549438476562
237.000000000000000 91.000000000000000 57.881095886230469
238.000000000000000 91.000000000000000 58.031597137451172
239.000000000000000 91.000000000000000 58.029384613037109
240.000000000000000 91.000000000000000 58.039295196533203
241.000000000000000 91.000000000000000 58.020053863525391
242.000000000000000 91.000000000000000 58.041557312011719
243.000000000000000 91.000000000000000 58.006942749023438
244.000000000000000 91.000000000000000 58.018466949462891
245.000000000000000 91.000000000000000 57.989711761474609
246.000000000000000 91.000000000000000 57.948406219482422
247.000000000000000 91.000000000000000 57.919025421142578
248.000000000000000 91.000000000000000 57.880668640136719
249.000000000000000 91.000000000000000 57.819442749023438
250.000000000000000 91.000000000000000 57.808113098144531
251.000000000000000 91.000000000000000 57.772621154785156
252.000000000000000 91.000000000000000 57.731269836425781
253.000000000000000 91.000000000000000 57.683128356933594
254.000000000000000 91.000000000000000 57.592105865478516
255.000000000000000 91.000000000000000 57.514080047607422
256.000000000000000 91.000000000000000 57.413574218750000
257.000000000000000 91.000000000000000 57.286510467529297
258.000000000000000 91.000000000000000 57.230442047119141
259.000000000000000 91.000000000000000 57.105106353759766
260.000000000000000 91.000000000000000 56.995674133300781
261.000000000000000 91.000000000000000 56.868431091308594
262.000000000000000 91.000000000000000 56.779495239257812
263.000000000000000 91.000000000000000 56.670310974121094
264.000000000000000 91.000000000000000 56.549129486083984
265.000000000000000 91.000000000000000 56.337528228759766
266.000000000000000 91.000000000000000 56.262077331542969
267.000000000000000 91.000000000000000 56.041275024414062
268.000000000000000 91.000000000000000 55.823890686035156
269.000000000000000 91.000000000000000 55.434154510498047
270.000000000000000 91.000000000000000 54.910621643066406
271.000000000000000 91.000000000000000 54.658996582031250
272.000000000000000 91.000000000000000 54.485298156738281
273.000000000000000 91.000000000000000 48.547302246093750
274.000000000000000 91.000000000000000 48.210514068603516
275.000000000000000 91.000000000000000 47.992176055908203
276.000000000000000 91.000000000000000 47.946552276611328
277.000000000000000 91.000000000000000 47.865779876708984
278.000000000000000 91.000000000000000 47.663711547851562
279.000000000000000 91.000000000000000 47.416545867919922
280.000000000000000 91.000000000000000 47.304122924804688
281.000000000000000 91.000000000000000 33.326625823974609
282.000000000000000 91.000000000000000 33.124660491943359
283.000000000000000 91.000000000000000 33.150974273681641
284.000000000000000 91.000000000000000 32.981174468994141
285.000000000000000 91.000000000000000 32.843868255615234
286.000000000000000 91.000000000000000 32.639049530029297
287.000000000000000 91.000000000000000 32.447704315185547
288.000000000000000 91.000000000000000 32.269493103027344
289.000000000000000 91.000000000000000 32.033645629882812
290.000000000000000 91.000000000000000 31.878206253051758
291.000000000000000 91.000000000000000 31.786348342895508
292.000000000000000 91.000000000000000 31.764120101928711
293.000000000000000 91.000000000000000 31.651008605957031
294.000000000000000 91.000000000000000 31.443197250366211
295.000000000000000 91.000000000000000 31.257785797119141
296.000000000000000 91.000000000000000 31.087852478027344
297.000000000000000 91.000000000000000 30.909753799438477
298.000000000000000 91.000000000000000 30.638460159301758
299.000000000000000 91.000000000000000 30.298414230346680
300.000000000000000 91.000000000000000 29.970197677612305
301.000000000000000 91.000000000000000 29.664182662963867
302.000000000000000 91.000000000000000 29.190080642700195
303.000000000000000 91.000000000000000 28.817363739013672
304.000000000000000 91.000000000000000 28.297662734985352
305.000000000000000 91.000000000000000 27.845064163208008
306.000000000000000 91.000000000000000 27.334802627563477
307.000000000000000 91.000000000000000 26.876636505126953
308.000000000000000 91.000000000000000 26.416641235351562
309.000000000000000 91.000000000000000 25.907226562500000
310.000000000000000 91.000000000000000 25.193212509155273
311.000000000000000 91.000000000000000 24.486114501953125
312.000000000000000 91.000000000000000 23.354640960693359
313.000000000000000 91.000000000000000 22.378368377685547
314.000000000000000 91.000000000000000 23.117628097534180
232.000000000000000 92.000000000000000 126.309532165527344
233.000000000000000 92.000000000000000 42.400730133056641
234.000000000000000 92.000000000000000 56.142028808593750
235.000000000000000 92.000000000000000 57.241558074951172
236.000000000000000 92.000000000000000 57.484981536865234
237.000000000000000 92.000000000000000 57.837203979492188
238.000000000000000 92.000000000000000 57.949455261230469
239.000000000000000 92.000000000000000 57.886283874511719
240.000000000000000 92.000000000000000 57.913608551025391
241.000000000000000 92.000000000000000 57.846317291259766
242.000000000000000 92.000000000000000 57.849712371826172
243.000000000000000 92.000000000000000 57.853302001953125
244.000000000000000 92.000000000000000 57.842353820800781
245.000000000000000 92.000000000000000 57.823337554931641
246.000000000000000 92.000000000000000 57.790119171142578
247.000000000000000 92.000000000000000 57.767665863037109
248.000000000000000 92.000000000000000 57.724346160888672
249.000000000000000 92.000000000000000 57.699886322021484
250.000000000000000 92.000000000000000 57.685710906982422
251.000000000000000 92.000000000000000 57.609336853027344
252.000000000000000 92.000000000000000 57.554798126220703
253.000000000000000 92.000000000000000 57.491622924804688
254.000000000000000 92.000000000000000 57.403022766113281
255.000000000000000 92.000000000000000 57.340114593505859
256.000000000000000 92.000000000000000 57.225070953369141
257.000000000000000 92.000000000000000 57.083095550537109
258.000000000000000 92.000000000000000 57.001419067382812
259.000000000000000 92.000000000000000 56.879932403564453
260.000000000000000 92.000000000000000 56.810665130615234
261.000000000000000 92.000000000000000 56.730293273925781
262.000000000000000 92.000000000000000 56.629432678222656
263.000000000000000 92.000000000000000 56.509422302246094
264.000000000000000 92.000000000000000 56.301452636718750
265.000000000000000 92.000000000000000 56.125312805175781
266.000000000000000 92.000000000000000 56.098175048828125
267.000000000000000 92.000000000000000 55.826747894287109
268.000000000000000 92.000000000000000 55.479877471923828
269.000000000000000 92.000000000000000 54.975433349609375
270.000000000000000 92.000000000000000 54.553779602050781
273.000000000000000 92.000000000000000 47.446922302246094
274.000000000000000 92.000000000000000 47.276039123535156
275.000000000000000 92.000000000000000 33.577106475830078
276.000000000000000 92.000000000000000 33.624992370605469
277.000000000000000 92.000000000000000 33.306724548339844
278.000000000000000 92.000000000000000 33.043670654296875
279.000000000000000 92.000000000000000 32.923019409179688
280.000000000000000 92.000000000000000 32.641391754150391
281.000000000000000 92.000000000000000 32.533599853515625
282.000000000000000 92.000000000000000 32.472583770751953
283.000000000000000 92.000000000000000 32.510002136230469
284.000000000000000 92.000000000000000 32.379356384277344
285.000000000000000 92.000000000000000 32.198703765869141
286.000000000000000 92.000000000000000 32.064704895019531
287.000000000000000 92.000000000000000 31.804088592529297
288.000000000000000 92.000000000000000 31.562446594238281
289.000000000000000 92.000000000000000 31.404550552368164
290.000000000000000 92.000000000000000 31.330188751220703
291.000000000000000 92.000000000000000 31.259681701660156
292.000000000000000 92.000000000000000 31.230646133422852
293.000000000000000 92.000000000000000 31.077220916748047
294.000000000000000 92.000000000000000 30.886663436889648
295.000000000000000 92.000000000000000 30.719875335693359
296.000000000000000 92.000000000000000 30.461391448974609
297.000000000000000 92.000000000000000 30.213455200195312
298.000000000000000 92.000000000000000 29.913082122802734
299.000000000000000 92.000000000000000 29.594091415405273
300.000000000000000 92.000000000000000 29.252065658569336
301.000000000000000 92.000000000000000 28.937206268310547
302.000000000000000 92.000000000000000 28.508731842041016
303.000000000000000 92.000000000000000 28.078573226928711
304.000000000000000 92.000000000000000 27.565559387207031
305.000000000000000 92.000000000000000 27.093790054321289
306.000000000000000 92.000000000000000 26.622825622558594
307.000000000000000 92.000000000000000 26.151653289794922
308.000000000000000 92.000000000000000 25.526206970214844
309.000000000000000 92.000000000000000 24.763448715209961
310.000000000000000 92.000000000000000 24.254997253417969
311.000000000000000 92.000000000000000 23.499216079711914
312.000000000000000 92.000000000000000 20.656232833862305
313.000000000000000 92.000000000000000 31.405429840087891
233.000000000000000 93.000000000000000 36.806812286376953
234.000000000000000 93.000000000000000 55.492111206054688
235.000000000000000 93.000000000000000 57.208492279052734
236.000000000000000 93.000000000000000 57.487812042236328
237.000000000000000 93.000000000000000 57.758331298828125
238.000000000000000 93.000000000000000 57.936798095703125
239.000000000000000 93.000000000000000 57.814071655273438
240.000000000000000 93.000000000000000 57.813602447509766
241.000000000000000 93.000000000000000 57.695526123046875
242.000000000000000 93.000000000000000 57.658409118652344
243.000000000000000 93.000000000000000 57.686458587646484
244.000000000000000 93.000000000000000 57.684394836425781
245.000000000000000 93.000000000000000 57.673103332519531
246.000000000000000 93.000000000000000 57.656818389892578
247.000000000000000 93.000000000000000 57.644493103027344
248.000000000000000 93.000000000000000 57.588375091552734
249.000000000000000 93.000000000000000 57.559265136718750
250.000000000000000 93.000000000000000 57.506801605224609
251.000000000000000 93.000000000000000 57.445430755615234
252.000000000000000 93.000000000000000 57.399467468261719
253.000000000000000 93.000000000000000 57.325347900390625
254.000000000000000 93.000000000000000 57.247730255126953
255.000000000000000 93.000000000000000 57.156902313232422
256.000000000000000 93.000000000000000 57.008541107177734
257.000000000000000 93.000000000000000 56.869018554687500
258.000000000000000 93.000000000000000 56.810123443603516
259.000000000000000 93.000000000000000 56.723407745361328
260.000000000000000 93.000000000000000 56.666728973388672
261.000000000000000 93.000000000000000 56.536808013916016
262.000000000000000 93.000000000000000 56.408222198486328
263.000000000000000 93.000000000000000 56.247406005859375
264.000000000000000 93.000000000000000 56.045055389404297
265.000000000000000 93.000000000000000 55.889438629150391
266.000000000000000 93.000000000000000 55.747138977050781
267.000000000000000 93.000000000000000 55.427574157714844
268.000000000000000 93.000000000000000 55.048332214355469
269.000000000000000 93.000000000000000 54.501129150390625
273.000000000000000 93.000000000000000 46.431613922119141
274.000000000000000 93.000000000000000 32.133609771728516
275.000000000000000 93.000000000000000 32.043041229248047
276.000000000000000 93.000000000000000 32.280475616455078
277.000000000000000 93.000000000000000 32.037776947021484
278.000000000000000 93.000000000000000 32.029392242431641
279.000000000000000 93.000000000000000 31.888729095458984
280.000000000000000 93.000000000000000 31.663785934448242
281.000000000000000 93.000000000000000 31.596834182739258
282.000000000000000 93.000000000000000 31.729425430297852
283.000000000000000 93.000000000000000 31.718894958496094
284.000000000000000 93.000000000000000 31.598526000976562
285.000000000000000 93.000000000000000 31.386495590209961
286.000000000000000 93.000000000000000 31.211481094360352
287.000000000000000 93.000000000000000 31.043685913085938
288.000000000000000 93.000000000000000 30.904428482055664
289.000000000000000 93.000000000000000 30.864984512329102
290.000000000000000 93.000000000000000 30.785486221313477
291.000000000000000 93.000000000000000 30.629541397094727
292.000000000000000 93.000000000000000 30.491260528564453
293.000000000000000 93.000000000000000 30.412719726562500
294.000000000000000 93.000000000000000 30.214050292968750
295.000000000000000 93.000000000000000 29.996227264404297
296.000000000000000 93.000000000000000 29.732250213623047
297.000000000000000 93.000000000000000 29.380500793457031
298.000000000000000 93.000000000000000 29.102666854858398
299.000000000000000 93.000000000000000 28.864017486572266
300.000000000000000 93.000000000000000 28.483448028564453
301.000000000000000 93.000000000000000 28.127246856689453
302.000000000000000 93.000000000000000 27.821933746337891
303.000000000000000 93.000000000000000 27.363784790039062
304.000000000000000 93.000000000000000 26.826652526855469
305.000000000000000 93.000000000000000 26.448371887207031
306.000000000000000 93.000000000000000 25.899625778198242
307.000000000000000 93.000000000000000 25.203956604003906
308.000000000000000 93.000000000000000 24.406122207641602
309.000000000000000 93.000000000000000 23.844703674316406
310.000000000000000 93.000000000000000 23.024522781372070
311.000000000000000 93.000000000000000 19.163578033447266
312.000000000000000 93.000000000000000 30.774282455444336
313.000000000000000 93.000000000000000 30.009872436523438
234.000000000000000 94.000000000000000 42.520530700683594
235.000000000000000 94.000000000000000 56.862560272216797
236.000000000000000 94.000000000000000 57.227207183837891
237.000000000000000 94.000000000000000 57.533691406250000
238.000000000000000 94.000000000000000 57.724353790283203
239.000000000000000 94.000000000000000 57.666381835937500
240.000000000000000 94.000000000000000 57.677120208740234
241.000000000000000 94.000000000000000 57.570453643798828
242.000000000000000 94.000000000000000 57.483921051025391
243.000000000000000 94.000000000000000 57.495712280273438
244.000000000000000 94.000000000000000 57.499309539794922
245.000000000000000 94.000000000000000 57.526279449462891
246.000000000000000 94.000000000000000 57.558528900146484
