ply
format ascii 1.0
element vertex 811
property double x
property double y
property double z
end_header
424.000000000000000 263.000000000000000 42.093116760253906
307.000000000000000 264.000000000000000 44.702362060546875
308.000000000000000 264.000000000000000 45.227840423583984
309.000000000000000 264.000000000000000 45.611320495605469
310.000000000000000 264.000000000000000 46.113227844238281
311.000000000000000 264.000000000000000 46.637996673583984
312.000000000000000 264.000000000000000 47.118492126464844
313.000000000000000 264.000000000000000 47.470912933349609
314.000000000000000 264.000000000000000 47.839187622070312
315.000000000000000 264.000000000000000 48.225059509277344
316.000000000000000 264.000000000000000 48.614349365234375
317.000000000000000 264.000000000000000 48.944091796875000
318.000000000000000 264.000000000000000 49.266582489013672
319.000000000000000 264.000000000000000 49.678451538085938
320.000000000000000 264.000000000000000 49.989234924316406
321.000000000000000 264.000000000000000 50.305393218994141
322.000000000000000 264.000000000000000 50.537689208984375
323.000000000000000 264.000000000000000 50.718452453613281
324.000000000000000 264.000000000000000 50.916038513183594
325.000000000000000 264.000000000000000 50.885932922363281
326.000000000000000 264.000000000000000 50.864467620849609
327.000000000000000 264.000000000000000 51.130645751953125
328.000000000000000 264.000000000000000 51.670505523681641
329.000000000000000 264.000000000000000 52.019802093505859
330.000000000000000 264.000000000000000 52.245159149169922
331.000000000000000 264.000000000000000 52.477794647216797
332.000000000000000 264.000000000000000 52.729633331298828
333.000000000000000 264.000000000000000 52.930652618408203
334.000000000000000 264.000000000000000 53.150287628173828
335.000000000000000 264.000000000000000 53.292606353759766
336.000000000000000 264.000000000000000 53.447509765625000
337.000000000000000 264.000000000000000 53.570827484130859
338.000000000000000 264.000000000000000 53.697563171386719
339.000000000000000 264.000000000000000 53.822048187255859
340.000000000000000 264.000000000000000 53.937923431396484
341.000000000000000 264.000000000000000 54.061740875244141
342.000000000000000 264.000000000000000 54.176116943359375
343.000000000000000 264.000000000000000 54.282363891601562
344.000000000000000 264.000000000000000 54.374767303466797
345.000000000000000 264.000000000000000 54.442707061767578
346.000000000000000 264.000000000000000 54.532260894775391
347.000000000000000 264.000000000000000 54.594295501708984
348.000000000000000 264.000000000000000 54.650821685791016
349.000000000000000 264.000000000000000 54.690128326416016
350.000000000000000 264.000000000000000 54.673782348632812
351.000000000000000 264.000000000000000 54.678882598876953
352.000000000000000 264.000000000000000 54.705715179443359
353.000000000000000 264.000000000000000 54.701602935791016
354.000000000000000 264.000000000000000 54.735927581787109
355.000000000000000 264.000000000000000 54.793586730957031
356.000000000000000 264.000000000000000 54.824356079101562
357.000000000000000 264.000000000000000 54.820438385009766
358.000000000000000 264.000000000000000 54.763938903808594
359.000000000000000 264.000000000000000 54.725448608398438
360.000000000000000 264.000000000000000 54.720771789550781
361.000000000000000 264.000000000000000 54.721004486083984
362.000000000000000 264.000000000000000 54.670299530029297
363.000000000000000 264.000000000000000 54.626373291015625
364.000000000000000 264.000000000000000 54.601028442382812
365.000000000000000 264.000000000000000 54.545440673828125
366.000000000000000 264.000000000000000 54.468681335449219
367.000000000000000 264.000000000000000 54.433620452880859
368.000000000000000 264.000000000000000 54.323726654052734
369.000000000000000 264.000000000000000 54.230022430419922
370.000000000000000 264.000000000000000 54.136054992675781
371.000000000000000 264.000000000000000 54.089382171630859
372.000000000000000 264.000000000000000 54.025047302246094
373.000000000000000 264.000000000000000 53.951618194580078
374.000000000000000 264.000000000000000 53.916637420654297
375.000000000000000 264.000000000000000 53.828933715820312
376.000000000000000 264.000000000000000 53.777225494384766
377.000000000000000 264.000000000000000 53.680313110351562
378.000000000000000 264.000000000000000 53.579689025878906
379.000000000000000 264.000000000000000 53.338443756103516
380.000000000000000 264.000000000000000 53.009544372558594
381.000000000000000 264.000000000000000 52.800491333007812
382.000000000000000 264.000000000000000 52.635040283203125
383.000000000000000 264.000000000000000 52.537738800048828
384.000000000000000 264.000000000000000 52.597740173339844
385.000000000000000 264.000000000000000 52.517623901367188
386.000000000000000 264.000000000000000 52.425071716308594
387.000000000000000 264.000000000000000 52.443717956542969
388.000000000000000 264.000000000000000 52.385677337646484
389.000000000000000 264.000000000000000 52.286258697509766
390.000000000000000 264.000000000000000 52.195152282714844
391.000000000000000 264.000000000000000 52.135845184326172
392.000000000000000 264.000000000000000 52.066333770751953
393.000000000000000 264.000000000000000 51.975059509277344
394.000000000000000 264.000000000000000 51.875541687011719
395.000000000000000 264.000000000000000 51.800670623779297
396.000000000000000 264.000000000000000 51.746055603027344
397.000000000000000 264.000000000000000 51.664623260498047
398.000000000000000 264.000000000000000 51.599239349365234
399.000000000000000 264.000000000000000 51.487567901611328
400.000000000000000 264.000000000000000 51.349655151367188
401.000000000000000 264.000000000000000 51.223934173583984
402.000000000000000 264.000000000000000 51.095149993896484
403.000000000000000 264.000000000000000 50.994159698486328
404.000000000000000 264.000000000000000 50.911197662353516
405.000000000000000 264.000000000000000 50.785564422607422
406.000000000000000 264.000000000000000 50.665836334228516
407.000000000000000 264.000000000000000 50.442001342773438
408.000000000000000 264.000000000000000 50.300075531005859
409.000000000000000 264.000000000000000 50.060115814208984
410.000000000000000 264.000000000000000 49.767925262451172
411.000000000000000 264.000000000000000 49.498832702636719
412.000000000000000 264.000000000000000 49.057685852050781
413.000000000000000 264.000000000000000 48.525592803955078
414.000000000000000 264.000000000000000 47.880989074707031
415.000000000000000 264.000000000000000 47.480327606201172
416.000000000000000 264.000000000000000 47.021701812744141
417.000000000000000 264.000000000000000 46.601039886474609
418.000000000000000 264.000000000000000 46.229267120361328
419.000000000000000 264.000000000000000 45.765213012695312
420.000000000000000 264.000000000000000 45.386634826660156
421.000000000000000 264.000000000000000 44.863254547119141
422.000000000000000 264.000000000000000 44.156475067138672
423.000000000000000 264.000000000000000 43.402053833007812
424.000000000000000 264.000000000000000 42.385242462158203
425.000000000000000 264.000000000000000 41.335109710693359
307.000000000000000 265.000000000000000 44.596599578857422
308.000000000000000 265.000000000000000 45.116920471191406
309.000000000000000 265.000000000000000 45.487365722656250
310.000000000000000 265.000000000000000 46.044616699218750
311.000000000000000 265.000000000000000 46.581516265869141
312.000000000000000 265.000000000000000 47.105167388916016
313.000000000000000 265.000000000000000 47.489440917968750
314.000000000000000 265.000000000000000 47.845478057861328
315.000000000000000 265.000000000000000 48.194412231445312
316.000000000000000 265.000000000000000 48.557510375976562
317.000000000000000 265.000000000000000 48.899120330810547
318.000000000000000 265.000000000000000 49.203762054443359
319.000000000000000 265.000000000000000 49.605598449707031
320.000000000000000 265.000000000000000 49.942035675048828
321.000000000000000 265.000000000000000 50.258510589599609
322.000000000000000 265.000000000000000 50.494766235351562
323.000000000000000 265.000000000000000 50.685661315917969
324.000000000000000 265.000000000000000 50.870269775390625
325.000000000000000 265.000000000000000 50.795360565185547
326.000000000000000 265.000000000000000 50.765735626220703
327.000000000000000 265.000000000000000 51.079090118408203
328.000000000000000 265.000000000000000 51.659076690673828
329.000000000000000 265.000000000000000 52.030288696289062
330.000000000000000 265.000000000000000 52.335826873779297
331.000000000000000 265.000000000000000 52.638008117675781
332.000000000000000 265.000000000000000 52.804878234863281
333.000000000000000 265.000000000000000 52.965312957763672
334.000000000000000 265.000000000000000 53.095905303955078
335.000000000000000 265.000000000000000 53.237060546875000
336.000000000000000 265.000000000000000 53.398487091064453
337.000000000000000 265.000000000000000 53.520160675048828
338.000000000000000 265.000000000000000 53.647239685058594
339.000000000000000 265.000000000000000 53.769104003906250
340.000000000000000 265.000000000000000 53.883346557617188
341.000000000000000 265.000000000000000 54.022727966308594
342.000000000000000 265.000000000000000 54.130352020263672
343.000000000000000 265.000000000000000 54.228385925292969
344.000000000000000 265.000000000000000 54.332412719726562
345.000000000000000 265.000000000000000 54.417026519775391
346.000000000000000 265.000000000000000 54.501209259033203
347.000000000000000 265.000000000000000 54.549659729003906
348.000000000000000 265.000000000000000 54.591766357421875
349.000000000000000 265.000000000000000 54.631721496582031
350.000000000000000 265.000000000000000 54.655483245849609
351.000000000000000 265.000000000000000 54.680313110351562
352.000000000000000 265.000000000000000 54.717571258544922
353.000000000000000 265.000000000000000 54.713378906250000
354.000000000000000 265.000000000000000 54.771141052246094
355.000000000000000 265.000000000000000 54.858840942382812
356.000000000000000 265.000000000000000 54.901130676269531
357.000000000000000 265.000000000000000 54.888229370117188
358.000000000000000 265.000000000000000 54.833179473876953
359.000000000000000 265.000000000000000 54.834785461425781
360.000000000000000 265.000000000000000 54.832195281982422
361.000000000000000 265.000000000000000 54.803176879882812
362.000000000000000 265.000000000000000 54.752841949462891
363.000000000000000 265.000000000000000 54.734870910644531
364.000000000000000 265.000000000000000 54.703674316406250
365.000000000000000 265.000000000000000 54.641532897949219
366.000000000000000 265.000000000000000 54.587341308593750
367.000000000000000 265.000000000000000 54.558727264404297
368.000000000000000 265.000000000000000 54.424205780029297
369.000000000000000 265.000000000000000 54.335590362548828
370.000000000000000 265.000000000000000 54.265884399414062
371.000000000000000 265.000000000000000 54.183708190917969
372.000000000000000 265.000000000000000 54.112712860107422
373.000000000000000 265.000000000000000 54.049003601074219
374.000000000000000 265.000000000000000 53.980052947998047
375.000000000000000 265.000000000000000 53.915645599365234
376.000000000000000 265.000000000000000 53.873680114746094
377.000000000000000 265.000000000000000 53.805332183837891
378.000000000000000 265.000000000000000 53.691875457763672
379.000000000000000 265.000000000000000 53.447525024414062
380.000000000000000 265.000000000000000 53.054920196533203
381.000000000000000 265.000000000000000 52.823932647705078
382.000000000000000 265.000000000000000 52.717418670654297
383.000000000000000 265.000000000000000 52.635429382324219
384.000000000000000 265.000000000000000 52.584907531738281
385.000000000000000 265.000000000000000 52.526756286621094
386.000000000000000 265.000000000000000 52.460021972656250
387.000000000000000 265.000000000000000 52.503261566162109
388.000000000000000 265.000000000000000 52.470710754394531
389.000000000000000 265.000000000000000 52.333244323730469
390.000000000000000 265.000000000000000 52.200962066650391
391.000000000000000 265.000000000000000 52.121528625488281
392.000000000000000 265.000000000000000 52.077754974365234
393.000000000000000 265.000000000000000 51.980056762695312
394.000000000000000 265.000000000000000 51.880981445312500
395.000000000000000 265.000000000000000 51.817844390869141
396.000000000000000 265.000000000000000 51.752086639404297
397.000000000000000 265.000000000000000 51.669605255126953
398.000000000000000 265.000000000000000 51.593570709228516
399.000000000000000 265.000000000000000 51.535278320312500
400.000000000000000 265.000000000000000 51.411968231201172
401.000000000000000 265.000000000000000 51.296554565429688
402.000000000000000 265.000000000000000 51.174034118652344
403.000000000000000 265.000000000000000 51.096439361572266
404.000000000000000 265.000000000000000 51.004299163818359
405.000000000000000 265.000000000000000 50.888755798339844
406.000000000000000 265.000000000000000 50.777175903320312
407.000000000000000 265.000000000000000 50.608676910400391
408.000000000000000 265.000000000000000 50.456012725830078
409.000000000000000 265.000000000000000 50.307109832763672
410.000000000000000 265.000000000000000 50.078250885009766
411.000000000000000 265.000000000000000 49.839836120605469
412.000000000000000 265.000000000000000 49.556961059570312
413.000000000000000 265.000000000000000 49.059505462646484
414.000000000000000 265.000000000000000 48.404609680175781
415.000000000000000 265.000000000000000 47.941890716552734
416.000000000000000 265.000000000000000 47.396339416503906
417.000000000000000 265.000000000000000 46.965343475341797
418.000000000000000 265.000000000000000 46.592273712158203
419.000000000000000 265.000000000000000 46.152317047119141
420.000000000000000 265.000000000000000 45.772651672363281
421.000000000000000 265.000000000000000 45.356113433837891
422.000000000000000 265.000000000000000 44.802993774414062
423.000000000000000 265.000000000000000 43.878768920898438
424.000000000000000 265.000000000000000 42.717491149902344
307.000000000000000 266.000000000000000 44.566684722900391
308.000000000000000 266.000000000000000 44.998020172119141
309.000000000000000 266.000000000000000 45.399608612060547
310.000000000000000 266.000000000000000 45.978206634521484
311.000000000000000 266.000000000000000 46.511199951171875
312.000000000000000 266.000000000000000 47.100017547607422
313.000000000000000 266.000000000000000 47.466060638427734
314.000000000000000 266.000000000000000 47.782535552978516
315.000000000000000 266.000000000000000 48.156856536865234
316.000000000000000 266.000000000000000 48.520061492919922
317.000000000000000 266.000000000000000 48.829875946044922
318.000000000000000 266.000000000000000 49.131130218505859
319.000000000000000 266.000000000000000 49.541019439697266
320.000000000000000 266.000000000000000 49.876998901367188
321.000000000000000 266.000000000000000 50.229267120361328
322.000000000000000 266.000000000000000 50.455417633056641
323.000000000000000 266.000000000000000 50.633331298828125
324.000000000000000 266.000000000000000 50.760932922363281
325.000000000000000 266.000000000000000 50.660877227783203
326.000000000000000 266.000000000000000 50.677845001220703
327.000000000000000 266.000000000000000 51.025661468505859
328.000000000000000 266.000000000000000 51.630607604980469
329.000000000000000 266.000000000000000 52.070789337158203
330.000000000000000 266.000000000000000 52.443248748779297
331.000000000000000 266.000000000000000 52.721229553222656
332.000000000000000 266.000000000000000 52.814830780029297
333.000000000000000 266.000000000000000 52.943931579589844
334.000000000000000 266.000000000000000 53.059864044189453
335.000000000000000 266.000000000000000 53.186683654785156
336.000000000000000 266.000000000000000 53.343715667724609
337.000000000000000 266.000000000000000 53.455337524414062
338.000000000000000 266.000000000000000 53.592643737792969
339.000000000000000 266.000000000000000 53.734992980957031
340.000000000000000 266.000000000000000 53.843685150146484
341.000000000000000 266.000000000000000 53.979732513427734
342.000000000000000 266.000000000000000 54.075374603271484
343.000000000000000 266.000000000000000 54.173767089843750
344.000000000000000 266.000000000000000 54.279979705810547
345.000000000000000 266.000000000000000 54.359493255615234
346.000000000000000 266.000000000000000 54.457660675048828
347.000000000000000 266.000000000000000 54.518943786621094
348.000000000000000 266.000000000000000 54.525920867919922
349.000000000000000 266.000000000000000 54.548664093017578
350.000000000000000 266.000000000000000 54.597652435302734
351.000000000000000 266.000000000000000 54.642925262451172
352.000000000000000 266.000000000000000 54.692104339599609
353.000000000000000 266.000000000000000 54.725460052490234
354.000000000000000 266.000000000000000 54.762348175048828
355.000000000000000 266.000000000000000 54.829845428466797
356.000000000000000 266.000000000000000 54.890232086181641
357.000000000000000 266.000000000000000 54.915012359619141
358.000000000000000 266.000000000000000 54.898456573486328
359.000000000000000 266.000000000000000 54.903747558593750
360.000000000000000 266.000000000000000 54.890682220458984
361.000000000000000 266.000000000000000 54.824611663818359
362.000000000000000 266.000000000000000 54.745082855224609
363.000000000000000 266.000000000000000 54.714653015136719
364.000000000000000 266.000000000000000 54.684352874755859
365.000000000000000 266.000000000000000 54.665817260742188
366.000000000000000 266.000000000000000 54.649600982666016
367.000000000000000 266.000000000000000 54.606910705566406
368.000000000000000 266.000000000000000 54.480319976806641
369.000000000000000 266.000000000000000 54.396247863769531
370.000000000000000 266.000000000000000 54.357929229736328
371.000000000000000 266.000000000000000 54.233783721923828
372.000000000000000 266.000000000000000 54.152061462402344
373.000000000000000 266.000000000000000 54.088142395019531
374.000000000000000 266.000000000000000 54.020069122314453
375.000000000000000 266.000000000000000 53.931091308593750
376.000000000000000 266.000000000000000 53.854598999023438
377.000000000000000 266.000000000000000 53.769977569580078
378.000000000000000 266.000000000000000 53.685256958007812
379.000000000000000 266.000000000000000 53.462142944335938
380.000000000000000 266.000000000000000 52.942924499511719
381.000000000000000 266.000000000000000 52.677082061767578
382.000000000000000 266.000000000000000 52.657428741455078
383.000000000000000 266.000000000000000 52.618244171142578
384.000000000000000 266.000000000000000 52.554584503173828
385.000000000000000 266.000000000000000 52.509410858154297
386.000000000000000 266.000000000000000 52.454235076904297
387.000000000000000 266.000000000000000 52.485466003417969
388.000000000000000 266.000000000000000 52.435203552246094
389.000000000000000 266.000000000000000 52.318252563476562
390.000000000000000 266.000000000000000 52.233734130859375
391.000000000000000 266.000000000000000 52.151477813720703
392.000000000000000 266.000000000000000 52.057212829589844
393.000000000000000 266.000000000000000 51.942039489746094
394.000000000000000 266.000000000000000 51.841514587402344
395.000000000000000 266.000000000000000 51.795600891113281
396.000000000000000 266.000000000000000 51.696308135986328
397.000000000000000 266.000000000000000 51.623107910156250
398.000000000000000 266.000000000000000 51.578910827636719
399.000000000000000 266.000000000000000 51.539672851562500
400.000000000000000 266.000000000000000 51.410812377929688
401.000000000000000 266.000000000000000 51.303188323974609
402.000000000000000 266.000000000000000 51.223266601562500
403.000000000000000 266.000000000000000 51.140300750732422
404.000000000000000 266.000000000000000 51.047740936279297
405.000000000000000 266.000000000000000 50.954078674316406
406.000000000000000 266.000000000000000 50.834789276123047
407.000000000000000 266.000000000000000 50.696292877197266
408.000000000000000 266.000000000000000 50.558441162109375
409.000000000000000 266.000000000000000 50.440185546875000
410.000000000000000 266.000000000000000 50.240898132324219
411.000000000000000 266.000000000000000 50.035388946533203
412.000000000000000 266.000000000000000 49.784790039062500
413.000000000000000 266.000000000000000 49.449142456054688
414.000000000000000 266.000000000000000 48.918937683105469
415.000000000000000 266.000000000000000 48.398567199707031
416.000000000000000 266.000000000000000 47.824684143066406
417.000000000000000 266.000000000000000 47.315917968750000
418.000000000000000 266.000000000000000 46.923431396484375
419.000000000000000 266.000000000000000 46.544799804687500
420.000000000000000 266.000000000000000 46.149929046630859
421.000000000000000 266.000000000000000 45.752395629882812
422.000000000000000 266.000000000000000 45.380970001220703
423.000000000000000 266.000000000000000 44.666084289550781
424.000000000000000 266.000000000000000 43.351520538330078
307.000000000000000 267.000000000000000 44.554691314697266
308.000000000000000 267.000000000000000 44.934738159179688
309.000000000000000 267.000000000000000 45.284564971923828
310.000000000000000 267.000000000000000 45.900993347167969
311.000000000000000 267.000000000000000 46.435344696044922
312.000000000000000 267.000000000000000 47.041496276855469
313.000000000000000 267.000000000000000 47.400382995605469
314.000000000000000 267.000000000000000 47.728054046630859
315.000000000000000 267.000000000000000 48.126960754394531
316.000000000000000 267.000000000000000 48.466938018798828
317.000000000000000 267.000000000000000 48.779617309570312
318.000000000000000 267.000000000000000 49.086406707763672
319.000000000000000 267.000000000000000 49.492141723632812
320.000000000000000 267.000000000000000 49.831794738769531
321.000000000000000 267.000000000000000 50.186355590820312
322.000000000000000 267.000000000000000 50.396903991699219
323.000000000000000 267.000000000000000 50.564506530761719
324.000000000000000 267.000000000000000 50.668560028076172
325.000000000000000 267.000000000000000 50.542865753173828
326.000000000000000 267.000000000000000 50.529724121093750
327.000000000000000 267.000000000000000 50.889747619628906
328.000000000000000 267.000000000000000 51.527225494384766
329.000000000000000 267.000000000000000 52.035640716552734
330.000000000000000 267.000000000000000 52.475204467773438
331.000000000000000 267.000000000000000 52.741958618164062
332.000000000000000 267.000000000000000 52.821083068847656
333.000000000000000 267.000000000000000 52.921295166015625
334.000000000000000 267.000000000000000 52.988224029541016
335.000000000000000 267.000000000000000 53.133769989013672
336.000000000000000 267.000000000000000 53.299335479736328
337.000000000000000 267.000000000000000 53.394245147705078
338.000000000000000 267.000000000000000 53.525028228759766
339.000000000000000 267.000000000000000 53.669483184814453
340.000000000000000 267.000000000000000 53.803035736083984
341.000000000000000 267.000000000000000 53.917575836181641
342.000000000000000 267.000000000000000 53.999542236328125
343.000000000000000 267.000000000000000 54.096363067626953
344.000000000000000 267.000000000000000 54.206401824951172
345.000000000000000 267.000000000000000 54.288368225097656
346.000000000000000 267.000000000000000 54.387504577636719
347.000000000000000 267.000000000000000 54.445655822753906
348.000000000000000 267.000000000000000 54.469532012939453
349.000000000000000 267.000000000000000 54.504837036132812
350.000000000000000 267.000000000000000 54.558692932128906
351.000000000000000 267.000000000000000 54.601169586181641
352.000000000000000 267.000000000000000 54.647556304931641
353.000000000000000 267.000000000000000 54.703754425048828
354.000000000000000 267.000000000000000 54.742111206054688
355.000000000000000 267.000000000000000 54.807151794433594
356.000000000000000 267.000000000000000 54.853836059570312
357.000000000000000 267.000000000000000 54.904876708984375
358.000000000000000 267.000000000000000 54.887775421142578
359.000000000000000 267.000000000000000 54.876567840576172
360.000000000000000 267.000000000000000 54.847892761230469
361.000000000000000 267.000000000000000 54.795173645019531
362.000000000000000 267.000000000000000 54.735961914062500
363.000000000000000 267.000000000000000 54.707057952880859
364.000000000000000 267.000000000000000 54.653480529785156
365.000000000000000 267.000000000000000 54.631851196289062
366.000000000000000 267.000000000000000 54.611286163330078
367.000000000000000 267.000000000000000 54.581096649169922
368.000000000000000 267.000000000000000 54.487377166748047
369.000000000000000 267.000000000000000 54.418605804443359
370.000000000000000 267.000000000000000 54.362846374511719
371.000000000000000 267.000000000000000 54.236591339111328
372.000000000000000 267.000000000000000 54.154811859130859
373.000000000000000 267.000000000000000 54.078804016113281
374.000000000000000 267.000000000000000 54.009468078613281
375.000000000000000 267.000000000000000 53.908863067626953
376.000000000000000 267.000000000000000 53.805442810058594
377.000000000000000 267.000000000000000 53.707164764404297
378.000000000000000 267.000000000000000 53.638153076171875
379.000000000000000 267.000000000000000 53.361995697021484
380.000000000000000 267.000000000000000 52.893062591552734
381.000000000000000 267.000000000000000 52.655109405517578
382.000000000000000 267.000000000000000 52.637187957763672
383.000000000000000 267.000000000000000 52.586856842041016
384.000000000000000 267.000000000000000 52.496349334716797
385.000000000000000 267.000000000000000 52.448478698730469
386.000000000000000 267.000000000000000 52.368797302246094
387.000000000000000 267.000000000000000 52.387142181396484
388.000000000000000 267.000000000000000 52.331916809082031
389.000000000000000 267.000000000000000 52.256942749023438
390.000000000000000 267.000000000000000 52.195163726806641
391.000000000000000 267.000000000000000 52.119400024414062
392.000000000000000 267.000000000000000 52.003963470458984
393.000000000000000 267.000000000000000 51.875179290771484
394.000000000000000 267.000000000000000 51.791187286376953
395.000000000000000 267.000000000000000 51.727233886718750
396.000000000000000 267.000000000000000 51.632289886474609
397.000000000000000 267.000000000000000 51.558067321777344
398.000000000000000 267.000000000000000 51.508174896240234
399.000000000000000 267.000000000000000 51.470146179199219
400.000000000000000 267.000000000000000 51.368797302246094
401.000000000000000 267.000000000000000 51.284072875976562
402.000000000000000 267.000000000000000 51.232513427734375
403.000000000000000 267.000000000000000 51.139606475830078
404.000000000000000 267.000000000000000 51.048179626464844
405.000000000000000 267.000000000000000 50.973854064941406
406.000000000000000 267.000000000000000 50.848426818847656
407.000000000000000 267.000000000000000 50.726238250732422
408.000000000000000 267.000000000000000 50.592391967773438
409.000000000000000 267.000000000000000 50.496486663818359
410.000000000000000 267.000000000000000 50.338871002197266
411.000000000000000 267.000000000000000 50.101455688476562
412.000000000000000 267.000000000000000 49.853584289550781
413.000000000000000 267.000000000000000 49.591949462890625
414.000000000000000 267.000000000000000 49.225341796875000
415.000000000000000 267.000000000000000 48.778156280517578
416.000000000000000 267.000000000000000 48.225509643554688
417.000000000000000 267.000000000000000 47.692996978759766
418.000000000000000 267.000000000000000 47.299732208251953
419.000000000000000 267.000000000000000 46.922679901123047
420.000000000000000 267.000000000000000 46.438419342041016
421.000000000000000 267.000000000000000 45.958515167236328
422.000000000000000 267.000000000000000 45.645431518554688
423.000000000000000 267.000000000000000 45.195247650146484
424.000000000000000 267.000000000000000 44.175945281982422
425.000000000000000 267.000000000000000 43.040554046630859
307.000000000000000 268.000000000000000 44.553058624267578
308.000000000000000 268.000000000000000 44.856727600097656
309.000000000000000 268.000000000000000 45.217037200927734
310.000000000000000 268.000000000000000 45.862674713134766
311.000000000000000 268.000000000000000 46.348960876464844
312.000000000000000 268.000000000000000 46.928947448730469
313.000000000000000 268.000000000000000 47.300281524658203
314.000000000000000 268.000000000000000 47.646209716796875
315.000000000000000 268.000000000000000 48.050895690917969
316.000000000000000 268.000000000000000 48.434383392333984
317.000000000000000 268.000000000000000 48.760139465332031
318.000000000000000 268.000000000000000 49.082157135009766
319.000000000000000 268.000000000000000 49.455249786376953
320.000000000000000 268.000000000000000 49.776519775390625
321.000000000000000 268.000000000000000 50.128593444824219
322.000000000000000 268.000000000000000 50.314113616943359
323.000000000000000 268.000000000000000 50.488082885742188
324.000000000000000 268.000000000000000 50.572162628173828
325.000000000000000 268.000000000000000 50.438076019287109
326.000000000000000 268.000000000000000 50.438423156738281
327.000000000000000 268.000000000000000 50.796104431152344
328.000000000000000 268.000000000000000 51.451591491699219
329.000000000000000 268.000000000000000 51.944717407226562
330.000000000000000 268.000000000000000 52.395999908447266
331.000000000000000 268.000000000000000 52.633193969726562
332.000000000000000 268.000000000000000 52.761226654052734
333.000000000000000 268.000000000000000 52.855113983154297
334.000000000000000 268.000000000000000 52.919254302978516
335.000000000000000 268.000000000000000 53.079849243164062
336.000000000000000 268.000000000000000 53.247531890869141
337.000000000000000 268.000000000000000 53.351097106933594
338.000000000000000 268.000000000000000 53.474964141845703
339.000000000000000 268.000000000000000 53.615585327148438
340.000000000000000 268.000000000000000 53.729919433593750
341.000000000000000 268.000000000000000 53.853313446044922
342.000000000000000 268.000000000000000 53.939563751220703
343.000000000000000 268.000000000000000 54.031444549560547
344.000000000000000 268.000000000000000 54.149368286132812
345.000000000000000 268.000000000000000 54.223918914794922
346.000000000000000 268.000000000000000 54.308113098144531
347.000000000000000 268.000000000000000 54.368740081787109
348.000000000000000 268.000000000000000 54.413440704345703
349.000000000000000 268.000000000000000 54.461376190185547
350.000000000000000 268.000000000000000 54.517879486083984
351.000000000000000 268.000000000000000 54.572628021240234
352.000000000000000 268.000000000000000 54.614643096923828
353.000000000000000 268.000000000000000 54.658554077148438
354.000000000000000 268.000000000000000 54.687026977539062
355.000000000000000 268.000000000000000 54.727275848388672
356.000000000000000 268.000000000000000 54.743770599365234
357.000000000000000 268.000000000000000 54.791477203369141
358.000000000000000 268.000000000000000 54.788570404052734
359.000000000000000 268.000000000000000 54.788139343261719
360.000000000000000 268.000000000000000 54.765384674072266
361.000000000000000 268.000000000000000 54.727043151855469
362.000000000000000 268.000000000000000 54.690238952636719
363.000000000000000 268.000000000000000 54.647895812988281
364.000000000000000 268.000000000000000 54.573997497558594
365.000000000000000 268.000000000000000 54.558624267578125
366.000000000000000 268.000000000000000 54.524566650390625
367.000000000000000 268.000000000000000 54.499664306640625
368.000000000000000 268.000000000000000 54.432582855224609
369.000000000000000 268.000000000000000 54.371948242187500
370.000000000000000 268.000000000000000 54.309738159179688
371.000000000000000 268.000000000000000 54.222980499267578
372.000000000000000 268.000000000000000 54.129867553710938
373.000000000000000 268.000000000000000 54.055339813232422
374.000000000000000 268.000000000000000 53.987190246582031
375.000000000000000 268.000000000000000 53.892261505126953
376.000000000000000 268.000000000000000 53.796379089355469
377.000000000000000 268.000000000000000 53.673484802246094
378.000000000000000 268.000000000000000 53.563045501708984
379.000000000000000 268.000000000000000 53.175849914550781
380.000000000000000 268.000000000000000 52.749160766601562
381.000000000000000 268.000000000000000 52.657566070556641
382.000000000000000 268.000000000000000 52.605476379394531
383.000000000000000 268.000000000000000 52.516235351562500
384.000000000000000 268.000000000000000 52.423023223876953
385.000000000000000 268.000000000000000 52.337043762207031
386.000000000000000 268.000000000000000 52.238319396972656
387.000000000000000 268.000000000000000 52.264152526855469
388.000000000000000 268.000000000000000 52.217834472656250
389.000000000000000 268.000000000000000 52.185394287109375
390.000000000000000 268.000000000000000 52.136539459228516
391.000000000000000 268.000000000000000 52.064521789550781
392.000000000000000 268.000000000000000 51.926490783691406
393.000000000000000 268.000000000000000 51.800468444824219
394.000000000000000 268.000000000000000 51.696388244628906
395.000000000000000 268.000000000000000 51.607383728027344
396.000000000000000 268.000000000000000 51.464572906494141
397.000000000000000 268.000000000000000 51.407688140869141
398.000000000000000 268.000000000000000 51.376770019531250
399.000000000000000 268.000000000000000 51.353343963623047
400.000000000000000 268.000000000000000 51.262866973876953
401.000000000000000 268.000000000000000 51.182872772216797
402.000000000000000 268.000000000000000 51.134662628173828
403.000000000000000 268.000000000000000 51.078090667724609
404.000000000000000 268.000000000000000 51.003871917724609
405.000000000000000 268.000000000000000 50.933242797851562
406.000000000000000 268.000000000000000 50.808952331542969
407.000000000000000 268.000000000000000 50.688774108886719
408.000000000000000 268.000000000000000 50.553718566894531
409.000000000000000 268.000000000000000 50.453540802001953
410.000000000000000 268.000000000000000 50.310791015625000
411.000000000000000 268.000000000000000 50.106449127197266
412.000000000000000 268.000000000000000 49.893550872802734
413.000000000000000 268.000000000000000 49.652465820312500
414.000000000000000 268.000000000000000 49.387916564941406
415.000000000000000 268.000000000000000 48.999416351318359
416.000000000000000 268.000000000000000 48.525066375732422
417.000000000000000 268.000000000000000 48.033485412597656
418.000000000000000 268.000000000000000 47.644462585449219
419.000000000000000 268.000000000000000 47.225376129150391
420.000000000000000 268.000000000000000 46.714454650878906
421.000000000000000 268.000000000000000 46.216915130615234
422.000000000000000 268.000000000000000 45.868183135986328
423.000000000000000 268.000000000000000 45.471908569335938
424.000000000000000 268.000000000000000 44.752399444580078
425.000000000000000 268.000000000000000 43.769348144531250
426.000000000000000 268.000000000000000 42.451786041259766
307.000000000000000 269.000000000000000 44.402149200439453
308.000000000000000 269.000000000000000 44.817810058593750
309.000000000000000 269.000000000000000 45.189220428466797
310.000000000000000 269.000000000000000 45.790107727050781
311.000000000000000 269.000000000000000 46.250774383544922
312.000000000000000 269.000000000000000 46.815769195556641
313.000000000000000 269.000000000000000 47.229022979736328
314.000000000000000 269.000000000000000 47.609012603759766
315.000000000000000 269.000000000000000 48.027912139892578
316.000000000000000 269.000000000000000 48.383815765380859
317.000000000000000 269.000000000000000 48.714809417724609
318.000000000000000 269.000000000000000 49.042098999023438
319.000000000000000 269.000000000000000 49.437812805175781
320.000000000000000 269.000000000000000 49.753223419189453
321.000000000000000 269.000000000000000 50.071922302246094
322.000000000000000 269.000000000000000 50.262035369873047
323.000000000000000 269.000000000000000 50.437583923339844
324.000000000000000 269.000000000000000 50.516326904296875
325.000000000000000 269.000000000000000 50.347667694091797
326.000000000000000 269.000000000000000 50.357089996337891
327.000000000000000 269.000000000000000 50.741207122802734
328.000000000000000 269.000000000000000 51.414855957031250
329.000000000000000 269.000000000000000 51.933471679687500
330.000000000000000 269.000000000000000 52.343311309814453
331.000000000000000 269.000000000000000 52.559951782226562
332.000000000000000 269.000000000000000 52.732929229736328
333.000000000000000 269.000000000000000 52.821041107177734
334.000000000000000 269.000000000000000 52.875125885009766
335.000000000000000 269.000000000000000 53.024913787841797
336.000000000000000 269.000000000000000 53.185188293457031
337.000000000000000 269.000000000000000 53.296756744384766
338.000000000000000 269.000000000000000 53.421688079833984
339.000000000000000 269.000000000000000 53.545764923095703
340.000000000000000 269.000000000000000 53.659858703613281
341.000000000000000 269.000000000000000 53.790069580078125
342.000000000000000 269.000000000000000 53.873916625976562
343.000000000000000 269.000000000000000 53.964435577392578
344.000000000000000 269.000000000000000 54.089630126953125
345.000000000000000 269.000000000000000 54.165466308593750
346.000000000000000 269.000000000000000 54.238201141357422
347.000000000000000 269.000000000000000 54.296436309814453
348.000000000000000 269.000000000000000 54.347255706787109
349.000000000000000 269.000000000000000 54.398593902587891
350.000000000000000 269.000000000000000 54.459079742431641
351.000000000000000 269.000000000000000 54.501743316650391
352.000000000000000 269.000000000000000 54.541198730468750
353.000000000000000 269.000000000000000 54.565944671630859
354.000000000000000 269.000000000000000 54.594940185546875
355.000000000000000 269.000000000000000 54.624267578125000
356.000000000000000 269.000000000000000 54.629070281982422
357.000000000000000 269.000000000000000 54.672138214111328
358.000000000000000 269.000000000000000 54.705608367919922
359.000000000000000 269.000000000000000 54.703388214111328
360.000000000000000 269.000000000000000 54.665145874023438
361.000000000000000 269.000000000000000 54.639492034912109
362.000000000000000 269.000000000000000 54.599845886230469
363.000000000000000 269.000000000000000 54.542755126953125
364.000000000000000 269.000000000000000 54.482036590576172
365.000000000000000 269.000000000000000 54.466102600097656
366.000000000000000 269.000000000000000 54.438091278076172
367.000000000000000 269.000000000000000 54.399524688720703
368.000000000000000 269.000000000000000 54.350128173828125
369.000000000000000 269.000000000000000 54.306682586669922
370.000000000000000 269.000000000000000 54.258239746093750
371.000000000000000 269.000000000000000 54.167922973632812
372.000000000000000 269.000000000000000 54.094551086425781
373.000000000000000 269.000000000000000 54.018951416015625
374.000000000000000 269.000000000000000 53.951248168945312
375.000000000000000 269.000000000000000 53.854602813720703
376.000000000000000 269.000000000000000 53.771415710449219
377.000000000000000 269.000000000000000 53.606079101562500
378.000000000000000 269.000000000000000 53.447631835937500
379.000000000000000 269.000000000000000 52.937618255615234
380.000000000000000 269.000000000000000 52.577026367187500
381.000000000000000 269.000000000000000 52.545043945312500
382.000000000000000 269.000000000000000 52.468772888183594
383.000000000000000 269.000000000000000 52.414825439453125
384.000000000000000 269.000000000000000 52.265502929687500
385.000000000000000 269.000000000000000 52.165874481201172
386.000000000000000 269.000000000000000 52.123908996582031
387.000000000000000 269.000000000000000 52.146648406982422
388.000000000000000 269.000000000000000 52.133712768554688
389.000000000000000 269.000000000000000 52.107879638671875
390.000000000000000 269.000000000000000 52.025405883789062
391.000000000000000 269.000000000000000 51.930778503417969
392.000000000000000 269.000000000000000 51.780139923095703
393.000000000000000 269.000000000000000 51.697849273681641
394.000000000000000 269.000000000000000 51.590908050537109
395.000000000000000 269.000000000000000 51.456817626953125
396.000000000000000 269.000000000000000 51.287082672119141
397.000000000000000 269.000000000000000 51.220241546630859
398.000000000000000 269.000000000000000 51.198280334472656
399.000000000000000 269.000000000000000 51.162654876708984
400.000000000000000 269.000000000000000 51.086841583251953
401.000000000000000 269.000000000000000 51.019794464111328
402.000000000000000 269.000000000000000 50.986701965332031
403.000000000000000 269.000000000000000 50.945026397705078
404.000000000000000 269.000000000000000 50.898136138916016
405.000000000000000 269.000000000000000 50.828834533691406
406.000000000000000 269.000000000000000 50.700973510742188
407.000000000000000 269.000000000000000 50.602748870849609
408.000000000000000 269.000000000000000 50.489681243896484
409.000000000000000 269.000000000000000 50.389991760253906
410.000000000000000 269.000000000000000 50.264957427978516
411.000000000000000 269.000000000000000 50.108165740966797
412.000000000000000 269.000000000000000 49.912124633789062
413.000000000000000 269.000000000000000 49.666568756103516
414.000000000000000 269.000000000000000 49.417152404785156
415.000000000000000 269.000000000000000 49.116886138916016
416.000000000000000 269.000000000000000 48.749198913574219
417.000000000000000 269.000000000000000 48.272506713867188
418.000000000000000 269.000000000000000 47.899349212646484
419.000000000000000 269.000000000000000 47.537258148193359
420.000000000000000 269.000000000000000 47.044933319091797
421.000000000000000 269.000000000000000 46.498130798339844
422.000000000000000 269.000000000000000 46.081100463867188
423.000000000000000 269.000000000000000 45.647388458251953
424.000000000000000 269.000000000000000 45.098369598388672
425.000000000000000 269.000000000000000 44.121753692626953
426.000000000000000 269.000000000000000 43.008228302001953
427.000000000000000 269.000000000000000 42.375011444091797
307.000000000000000 270.000000000000000 44.332939147949219
308.000000000000000 270.000000000000000 44.755058288574219
309.000000000000000 270.000000000000000 45.168197631835938
310.000000000000000 270.000000000000000 45.689964294433594
311.000000000000000 270.000000000000000 46.166439056396484
312.000000000000000 270.000000000000000 46.745800018310547
313.000000000000000 270.000000000000000 47.149978637695312
314.000000000000000 270.000000000000000 47.535320281982422
315.000000000000000 270.000000000000000 47.965866088867188
316.000000000000000 270.000000000000000 48.320976257324219
317.000000000000000 270.000000000000000 48.636814117431641
318.000000000000000 270.000000000000000 48.987411499023438
319.000000000000000 270.000000000000000 49.391796112060547
320.000000000000000 270.000000000000000 49.693492889404297
321.000000000000000 270.000000000000000 50.023281097412109
322.000000000000000 270.000000000000000 50.197288513183594
323.000000000000000 270.000000000000000 50.343811035156250
324.000000000000000 270.000000000000000 50.399360656738281
325.000000000000000 270.000000000000000 50.240123748779297
326.000000000000000 270.000000000000000 50.325809478759766
327.000000000000000 270.000000000000000 50.722805023193359
328.000000000000000 270.000000000000000 51.339748382568359
329.000000000000000 270.000000000000000 51.847728729248047
330.000000000000000 270.000000000000000 52.247711181640625
331.000000000000000 270.000000000000000 52.457839965820312
332.000000000000000 270.000000000000000 52.634822845458984
333.000000000000000 270.000000000000000 52.735473632812500
334.000000000000000 270.000000000000000 52.827068328857422
335.000000000000000 270.000000000000000 52.978683471679688
336.000000000000000 270.000000000000000 53.136299133300781
337.000000000000000 270.000000000000000 53.234790802001953
338.000000000000000 270.000000000000000 53.365447998046875
339.000000000000000 270.000000000000000 53.496395111083984
340.000000000000000 270.000000000000000 53.600833892822266
341.000000000000000 270.000000000000000 53.726226806640625
342.000000000000000 270.000000000000000 53.807014465332031
343.000000000000000 270.000000000000000 53.901752471923828
344.000000000000000 270.000000000000000 54.027656555175781
345.000000000000000 270.000000000000000 54.098361968994141
346.000000000000000 270.000000000000000 54.168865203857422
347.000000000000000 270.000000000000000 54.233917236328125
348.000000000000000 270.000000000000000 54.281253814697266
349.000000000000000 270.000000000000000 54.335994720458984
350.000000000000000 270.000000000000000 54.370708465576172
351.000000000000000 270.000000000000000 54.428565979003906
352.000000000000000 270.000000000000000 54.480091094970703
353.000000000000000 270.000000000000000 54.494411468505859
354.000000000000000 270.000000000000000 54.524826049804688
355.000000000000000 270.000000000000000 54.554386138916016
356.000000000000000 270.000000000000000 54.568103790283203
357.000000000000000 270.000000000000000 54.598873138427734
358.000000000000000 270.000000000000000 54.620513916015625
359.000000000000000 270.000000000000000 54.597530364990234
360.000000000000000 270.000000000000000 54.556774139404297
361.000000000000000 270.000000000000000 54.538505554199219
362.000000000000000 270.000000000000000 54.492359161376953
363.000000000000000 270.000000000000000 54.472457885742188
364.000000000000000 270.000000000000000 54.421337127685547
365.000000000000000 270.000000000000000 54.384445190429688
366.000000000000000 270.000000000000000 54.351234436035156
367.000000000000000 270.000000000000000 54.314533233642578
368.000000000000000 270.000000000000000 54.271106719970703
369.000000000000000 270.000000000000000 54.233123779296875
370.000000000000000 270.000000000000000 54.178298950195312
371.000000000000000 270.000000000000000 54.105270385742188
372.000000000000000 270.000000000000000 54.050716400146484
373.000000000000000 270.000000000000000 53.958362579345703
374.000000000000000 270.000000000000000 53.876255035400391
375.000000000000000 270.000000000000000 53.802494049072266
376.000000000000000 270.000000000000000 53.710632324218750
377.000000000000000 270.000000000000000 53.502525329589844
378.000000000000000 270.000000000000000 53.241367340087891
379.000000000000000 270.000000000000000 52.699378967285156
380.000000000000000 270.000000000000000 52.488025665283203
381.000000000000000 270.000000000000000 52.445915222167969
382.000000000000000 270.000000000000000 52.307765960693359
383.000000000000000 270.000000000000000 52.231155395507812
384.000000000000000 270.000000000000000 52.103088378906250
385.000000000000000 270.000000000000000 52.007709503173828
386.000000000000000 270.000000000000000 51.950130462646484
387.000000000000000 270.000000000000000 52.036758422851562
388.000000000000000 270.000000000000000 52.050933837890625
389.000000000000000 270.000000000000000 52.009803771972656
390.000000000000000 270.000000000000000 51.854606628417969
391.000000000000000 270.000000000000000 51.827049255371094
392.000000000000000 270.000000000000000 51.654136657714844
393.000000000000000 270.000000000000000 51.548896789550781
394.000000000000000 270.000000000000000 51.383384704589844
395.000000000000000 270.000000000000000 51.200538635253906
396.000000000000000 270.000000000000000 51.056865692138672
397.000000000000000 270.000000000000000 50.995079040527344
398.000000000000000 270.000000000000000 50.966587066650391
399.000000000000000 270.000000000000000 50.949020385742188
400.000000000000000 270.000000000000000 50.887363433837891
401.000000000000000 270.000000000000000 50.828456878662109
