ply
format ascii 1.0
element vertex 827
property double x
property double y
property double z
end_header
322.000000000000000 59.000000000000000 5.355877399444580
323.000000000000000 59.000000000000000 4.760708808898926
324.000000000000000 59.000000000000000 4.133852481842041
325.000000000000000 59.000000000000000 3.462134122848511
326.000000000000000 59.000000000000000 2.828929424285889
327.000000000000000 59.000000000000000 2.191223859786987
328.000000000000000 59.000000000000000 1.279811382293701
329.000000000000000 59.000000000000000 0.185656800866127
332.000000000000000 59.000000000000000 41.283836364746094
333.000000000000000 59.000000000000000 40.103202819824219
335.000000000000000 59.000000000000000 37.387844085693359
336.000000000000000 59.000000000000000 35.532253265380859
208.000000000000000 60.000000000000000 57.659492492675781
209.000000000000000 60.000000000000000 58.314331054687500
210.000000000000000 60.000000000000000 58.663589477539062
211.000000000000000 60.000000000000000 59.093044281005859
212.000000000000000 60.000000000000000 59.742469787597656
213.000000000000000 60.000000000000000 60.513114929199219
214.000000000000000 60.000000000000000 60.854099273681641
215.000000000000000 60.000000000000000 60.910816192626953
216.000000000000000 60.000000000000000 60.974372863769531
217.000000000000000 60.000000000000000 61.052589416503906
218.000000000000000 60.000000000000000 61.225135803222656
219.000000000000000 60.000000000000000 61.228183746337891
220.000000000000000 60.000000000000000 61.217445373535156
221.000000000000000 60.000000000000000 61.201229095458984
222.000000000000000 60.000000000000000 61.186294555664062
223.000000000000000 60.000000000000000 61.171298980712891
224.000000000000000 60.000000000000000 61.202388763427734
225.000000000000000 60.000000000000000 61.226856231689453
226.000000000000000 60.000000000000000 61.222892761230469
227.000000000000000 60.000000000000000 61.180427551269531
228.000000000000000 60.000000000000000 61.115829467773438
229.000000000000000 60.000000000000000 61.090915679931641
230.000000000000000 60.000000000000000 61.123718261718750
231.000000000000000 60.000000000000000 61.113189697265625
232.000000000000000 60.000000000000000 61.067249298095703
233.000000000000000 60.000000000000000 61.041835784912109
234.000000000000000 60.000000000000000 61.060596466064453
235.000000000000000 60.000000000000000 61.037742614746094
236.000000000000000 60.000000000000000 61.036815643310547
237.000000000000000 60.000000000000000 61.050636291503906
238.000000000000000 60.000000000000000 61.005886077880859
239.000000000000000 60.000000000000000 60.944942474365234
240.000000000000000 60.000000000000000 60.911964416503906
241.000000000000000 60.000000000000000 60.882671356201172
242.000000000000000 60.000000000000000 60.831039428710938
243.000000000000000 60.000000000000000 60.768386840820312
244.000000000000000 60.000000000000000 60.742801666259766
245.000000000000000 60.000000000000000 60.670166015625000
246.000000000000000 60.000000000000000 60.590126037597656
247.000000000000000 60.000000000000000 60.507770538330078
248.000000000000000 60.000000000000000 60.421142578125000
249.000000000000000 60.000000000000000 60.357475280761719
250.000000000000000 60.000000000000000 60.244735717773438
251.000000000000000 60.000000000000000 60.130466461181641
252.000000000000000 60.000000000000000 60.031192779541016
253.000000000000000 60.000000000000000 59.951465606689453
254.000000000000000 60.000000000000000 59.814128875732422
255.000000000000000 60.000000000000000 59.709644317626953
256.000000000000000 60.000000000000000 59.590869903564453
257.000000000000000 60.000000000000000 59.484260559082031
258.000000000000000 60.000000000000000 59.374980926513672
259.000000000000000 60.000000000000000 59.265514373779297
260.000000000000000 60.000000000000000 59.176128387451172
261.000000000000000 60.000000000000000 59.044403076171875
262.000000000000000 60.000000000000000 58.921962738037109
263.000000000000000 60.000000000000000 58.780494689941406
264.000000000000000 60.000000000000000 58.662403106689453
265.000000000000000 60.000000000000000 58.545570373535156
266.000000000000000 60.000000000000000 58.385238647460938
267.000000000000000 60.000000000000000 58.199161529541016
268.000000000000000 60.000000000000000 58.029800415039062
269.000000000000000 60.000000000000000 57.861080169677734
270.000000000000000 60.000000000000000 57.736251831054688
271.000000000000000 60.000000000000000 57.585159301757812
272.000000000000000 60.000000000000000 57.441936492919922
273.000000000000000 60.000000000000000 57.255851745605469
274.000000000000000 60.000000000000000 57.092063903808594
275.000000000000000 60.000000000000000 56.906406402587891
276.000000000000000 60.000000000000000 56.718132019042969
277.000000000000000 60.000000000000000 56.560390472412109
278.000000000000000 60.000000000000000 56.372817993164062
279.000000000000000 60.000000000000000 56.189575195312500
280.000000000000000 60.000000000000000 55.999893188476562
281.000000000000000 60.000000000000000 55.784805297851562
282.000000000000000 60.000000000000000 55.581111907958984
283.000000000000000 60.000000000000000 55.379539489746094
284.000000000000000 60.000000000000000 55.129741668701172
285.000000000000000 60.000000000000000 54.888816833496094
286.000000000000000 60.000000000000000 54.664543151855469
287.000000000000000 60.000000000000000 54.404598236083984
288.000000000000000 60.000000000000000 54.137977600097656
289.000000000000000 60.000000000000000 53.844028472900391
290.000000000000000 60.000000000000000 53.502811431884766
291.000000000000000 60.000000000000000 53.174674987792969
292.000000000000000 60.000000000000000 52.827270507812500
293.000000000000000 60.000000000000000 52.306934356689453
294.000000000000000 60.000000000000000 51.387653350830078
295.000000000000000 60.000000000000000 50.371376037597656
296.000000000000000 60.000000000000000 54.819656372070312
297.000000000000000 60.000000000000000 55.536289215087891
298.000000000000000 60.000000000000000 55.616210937500000
299.000000000000000 60.000000000000000 13.674578666687012
300.000000000000000 60.000000000000000 28.243146896362305
301.000000000000000 60.000000000000000 27.998113632202148
302.000000000000000 60.000000000000000 27.905233383178711
303.000000000000000 60.000000000000000 27.671188354492188
304.000000000000000 60.000000000000000 12.540172576904297
305.000000000000000 60.000000000000000 12.193583488464355
306.000000000000000 60.000000000000000 11.839894294738770
307.000000000000000 60.000000000000000 11.461639404296875
308.000000000000000 60.000000000000000 11.058337211608887
309.000000000000000 60.000000000000000 10.748251914978027
310.000000000000000 60.000000000000000 10.450637817382812
311.000000000000000 60.000000000000000 10.095789909362793
312.000000000000000 60.000000000000000 9.613150596618652
313.000000000000000 60.000000000000000 9.035128593444824
314.000000000000000 60.000000000000000 8.544117927551270
315.000000000000000 60.000000000000000 8.170159339904785
316.000000000000000 60.000000000000000 7.774175167083740
317.000000000000000 60.000000000000000 7.348480224609375
318.000000000000000 60.000000000000000 7.019558906555176
319.000000000000000 60.000000000000000 6.619020938873291
320.000000000000000 60.000000000000000 6.212049007415771
321.000000000000000 60.000000000000000 5.675709724426270
322.000000000000000 60.000000000000000 5.066915512084961
323.000000000000000 60.000000000000000 4.445767402648926
324.000000000000000 60.000000000000000 3.759490013122559
325.000000000000000 60.000000000000000 3.025866270065308
326.000000000000000 60.000000000000000 2.438147068023682
327.000000000000000 60.000000000000000 1.823669195175171
328.000000000000000 60.000000000000000 0.895575165748596
332.000000000000000 60.000000000000000 40.772037506103516
333.000000000000000 60.000000000000000 39.411529541015625
334.000000000000000 60.000000000000000 37.951622009277344
335.000000000000000 60.000000000000000 36.681694030761719
209.000000000000000 61.000000000000000 57.746955871582031
210.000000000000000 61.000000000000000 57.992496490478516
211.000000000000000 61.000000000000000 58.586475372314453
212.000000000000000 61.000000000000000 59.344921112060547
213.000000000000000 61.000000000000000 60.034233093261719
214.000000000000000 61.000000000000000 58.523223876953125
215.000000000000000 61.000000000000000 60.690483093261719
216.000000000000000 61.000000000000000 60.786605834960938
217.000000000000000 61.000000000000000 60.794364929199219
218.000000000000000 61.000000000000000 60.974708557128906
219.000000000000000 61.000000000000000 61.000644683837891
220.000000000000000 61.000000000000000 60.995662689208984
221.000000000000000 61.000000000000000 60.956962585449219
222.000000000000000 61.000000000000000 60.952678680419922
223.000000000000000 61.000000000000000 60.926589965820312
224.000000000000000 61.000000000000000 60.956230163574219
225.000000000000000 61.000000000000000 60.948905944824219
226.000000000000000 61.000000000000000 60.958099365234375
227.000000000000000 61.000000000000000 60.907936096191406
228.000000000000000 61.000000000000000 60.874141693115234
229.000000000000000 61.000000000000000 60.845844268798828
230.000000000000000 61.000000000000000 60.856521606445312
231.000000000000000 61.000000000000000 60.873870849609375
232.000000000000000 61.000000000000000 60.898143768310547
233.000000000000000 61.000000000000000 60.876304626464844
234.000000000000000 61.000000000000000 60.908054351806641
235.000000000000000 61.000000000000000 60.912067413330078
236.000000000000000 61.000000000000000 60.880020141601562
237.000000000000000 61.000000000000000 60.905223846435547
238.000000000000000 61.000000000000000 60.889591217041016
239.000000000000000 61.000000000000000 60.845817565917969
240.000000000000000 61.000000000000000 60.818500518798828
241.000000000000000 61.000000000000000 60.790607452392578
242.000000000000000 61.000000000000000 60.708595275878906
243.000000000000000 61.000000000000000 60.651931762695312
244.000000000000000 61.000000000000000 60.625247955322266
245.000000000000000 61.000000000000000 60.531284332275391
246.000000000000000 61.000000000000000 60.456954956054688
247.000000000000000 61.000000000000000 60.360050201416016
248.000000000000000 61.000000000000000 60.296234130859375
249.000000000000000 61.000000000000000 60.254028320312500
250.000000000000000 61.000000000000000 60.138061523437500
251.000000000000000 61.000000000000000 60.037891387939453
252.000000000000000 61.000000000000000 59.955940246582031
253.000000000000000 61.000000000000000 59.882659912109375
254.000000000000000 61.000000000000000 59.745540618896484
255.000000000000000 61.000000000000000 59.638603210449219
256.000000000000000 61.000000000000000 59.530338287353516
257.000000000000000 61.000000000000000 59.440471649169922
258.000000000000000 61.000000000000000 59.331455230712891
259.000000000000000 61.000000000000000 59.220958709716797
260.000000000000000 61.000000000000000 59.136066436767578
261.000000000000000 61.000000000000000 59.017715454101562
262.000000000000000 61.000000000000000 58.907058715820312
263.000000000000000 61.000000000000000 58.756759643554688
264.000000000000000 61.000000000000000 58.671180725097656
265.000000000000000 61.000000000000000 58.545238494873047
266.000000000000000 61.000000000000000 58.399406433105469
267.000000000000000 61.000000000000000 58.221511840820312
268.000000000000000 61.000000000000000 58.060611724853516
269.000000000000000 61.000000000000000 57.898403167724609
270.000000000000000 61.000000000000000 57.766727447509766
271.000000000000000 61.000000000000000 57.628360748291016
272.000000000000000 61.000000000000000 57.457389831542969
273.000000000000000 61.000000000000000 57.292892456054688
274.000000000000000 61.000000000000000 57.121055603027344
275.000000000000000 61.000000000000000 56.930953979492188
276.000000000000000 61.000000000000000 56.751316070556641
277.000000000000000 61.000000000000000 56.593208312988281
278.000000000000000 61.000000000000000 56.405345916748047
279.000000000000000 61.000000000000000 56.211811065673828
280.000000000000000 61.000000000000000 56.010742187500000
281.000000000000000 61.000000000000000 55.826808929443359
282.000000000000000 61.000000000000000 55.615688323974609
283.000000000000000 61.000000000000000 55.379943847656250
284.000000000000000 61.000000000000000 55.152591705322266
285.000000000000000 61.000000000000000 54.909900665283203
286.000000000000000 61.000000000000000 54.717926025390625
287.000000000000000 61.000000000000000 54.450931549072266
288.000000000000000 61.000000000000000 54.176315307617188
289.000000000000000 61.000000000000000 53.861740112304688
290.000000000000000 61.000000000000000 53.482353210449219
291.000000000000000 61.000000000000000 53.182678222656250
292.000000000000000 61.000000000000000 52.854076385498047
293.000000000000000 61.000000000000000 52.405483245849609
294.000000000000000 61.000000000000000 51.723800659179688
295.000000000000000 61.000000000000000 52.138511657714844
296.000000000000000 61.000000000000000 42.076915740966797
297.000000000000000 61.000000000000000 55.488277435302734
298.000000000000000 61.000000000000000 42.418243408203125
299.000000000000000 61.000000000000000 28.282262802124023
300.000000000000000 61.000000000000000 28.052225112915039
301.000000000000000 61.000000000000000 27.777467727661133
302.000000000000000 61.000000000000000 27.735097885131836
303.000000000000000 61.000000000000000 27.516921997070312
304.000000000000000 61.000000000000000 12.334573745727539
305.000000000000000 61.000000000000000 11.947728157043457
306.000000000000000 61.000000000000000 11.528746604919434
307.000000000000000 61.000000000000000 11.114059448242188
308.000000000000000 61.000000000000000 10.756405830383301
309.000000000000000 61.000000000000000 10.480324745178223
310.000000000000000 61.000000000000000 10.169999122619629
311.000000000000000 61.000000000000000 9.802639961242676
312.000000000000000 61.000000000000000 9.327621459960938
313.000000000000000 61.000000000000000 8.759111404418945
314.000000000000000 61.000000000000000 8.314268112182617
315.000000000000000 61.000000000000000 7.983966827392578
316.000000000000000 61.000000000000000 7.494537830352783
317.000000000000000 61.000000000000000 7.005728244781494
318.000000000000000 61.000000000000000 6.705704689025879
319.000000000000000 61.000000000000000 6.394922256469727
320.000000000000000 61.000000000000000 5.955654144287109
321.000000000000000 61.000000000000000 5.435819149017334
322.000000000000000 61.000000000000000 4.763836383819580
323.000000000000000 61.000000000000000 4.103288650512695
324.000000000000000 61.000000000000000 3.404415369033813
325.000000000000000 61.000000000000000 2.658742904663086
326.000000000000000 61.000000000000000 2.002493619918823
327.000000000000000 61.000000000000000 1.245650768280029
328.000000000000000 61.000000000000000 0.230564653873444
334.000000000000000 61.000000000000000 37.323307037353516
210.000000000000000 62.000000000000000 57.032497406005859
211.000000000000000 62.000000000000000 57.999732971191406
212.000000000000000 62.000000000000000 58.576560974121094
213.000000000000000 62.000000000000000 59.435817718505859
215.000000000000000 62.000000000000000 60.197708129882812
216.000000000000000 62.000000000000000 60.614395141601562
217.000000000000000 62.000000000000000 60.564193725585938
218.000000000000000 62.000000000000000 60.632175445556641
219.000000000000000 62.000000000000000 60.721500396728516
220.000000000000000 62.000000000000000 60.722328186035156
221.000000000000000 62.000000000000000 60.729602813720703
222.000000000000000 62.000000000000000 60.749347686767578
223.000000000000000 62.000000000000000 60.732830047607422
224.000000000000000 62.000000000000000 60.727550506591797
225.000000000000000 62.000000000000000 60.725120544433594
226.000000000000000 62.000000000000000 60.728504180908203
227.000000000000000 62.000000000000000 60.686752319335938
228.000000000000000 62.000000000000000 60.669071197509766
229.000000000000000 62.000000000000000 60.658351898193359
230.000000000000000 62.000000000000000 60.666755676269531
231.000000000000000 62.000000000000000 60.684055328369141
232.000000000000000 62.000000000000000 60.706192016601562
233.000000000000000 62.000000000000000 60.720787048339844
234.000000000000000 62.000000000000000 60.755126953125000
235.000000000000000 62.000000000000000 60.730636596679688
236.000000000000000 62.000000000000000 60.744293212890625
237.000000000000000 62.000000000000000 60.746852874755859
238.000000000000000 62.000000000000000 60.740085601806641
239.000000000000000 62.000000000000000 60.694862365722656
240.000000000000000 62.000000000000000 60.681331634521484
241.000000000000000 62.000000000000000 60.632602691650391
242.000000000000000 62.000000000000000 60.586071014404297
243.000000000000000 62.000000000000000 60.530548095703125
244.000000000000000 62.000000000000000 60.489547729492188
245.000000000000000 62.000000000000000 60.409770965576172
246.000000000000000 62.000000000000000 60.348178863525391
247.000000000000000 62.000000000000000 60.279560089111328
248.000000000000000 62.000000000000000 60.209682464599609
249.000000000000000 62.000000000000000 60.152416229248047
250.000000000000000 62.000000000000000 60.058200836181641
251.000000000000000 62.000000000000000 59.970291137695312
252.000000000000000 62.000000000000000 59.896457672119141
253.000000000000000 62.000000000000000 59.817909240722656
254.000000000000000 62.000000000000000 59.704860687255859
255.000000000000000 62.000000000000000 59.597137451171875
256.000000000000000 62.000000000000000 59.480804443359375
257.000000000000000 62.000000000000000 59.386981964111328
258.000000000000000 62.000000000000000 59.318084716796875
259.000000000000000 62.000000000000000 59.212730407714844
260.000000000000000 62.000000000000000 59.125350952148438
261.000000000000000 62.000000000000000 58.996829986572266
262.000000000000000 62.000000000000000 58.886821746826172
263.000000000000000 62.000000000000000 58.767223358154297
264.000000000000000 62.000000000000000 58.655384063720703
265.000000000000000 62.000000000000000 58.540912628173828
266.000000000000000 62.000000000000000 58.385852813720703
267.000000000000000 62.000000000000000 58.240612030029297
268.000000000000000 62.000000000000000 58.092258453369141
269.000000000000000 62.000000000000000 57.933494567871094
270.000000000000000 62.000000000000000 57.819988250732422
271.000000000000000 62.000000000000000 57.675025939941406
272.000000000000000 62.000000000000000 57.508941650390625
273.000000000000000 62.000000000000000 57.319843292236328
274.000000000000000 62.000000000000000 57.134956359863281
275.000000000000000 62.000000000000000 56.963649749755859
276.000000000000000 62.000000000000000 56.760116577148438
277.000000000000000 62.000000000000000 56.603282928466797
278.000000000000000 62.000000000000000 56.429115295410156
279.000000000000000 62.000000000000000 56.252952575683594
280.000000000000000 62.000000000000000 56.057083129882812
281.000000000000000 62.000000000000000 55.854927062988281
282.000000000000000 62.000000000000000 55.655559539794922
283.000000000000000 62.000000000000000 55.441184997558594
284.000000000000000 62.000000000000000 55.189338684082031
285.000000000000000 62.000000000000000 54.953636169433594
286.000000000000000 62.000000000000000 54.752071380615234
287.000000000000000 62.000000000000000 54.488483428955078
288.000000000000000 62.000000000000000 54.214801788330078
289.000000000000000 62.000000000000000 53.873878479003906
290.000000000000000 62.000000000000000 53.494239807128906
291.000000000000000 62.000000000000000 53.227729797363281
292.000000000000000 62.000000000000000 52.903659820556641
293.000000000000000 62.000000000000000 52.613128662109375
294.000000000000000 62.000000000000000 52.811305999755859
295.000000000000000 62.000000000000000 54.465835571289062
296.000000000000000 62.000000000000000 41.927680969238281
297.000000000000000 62.000000000000000 42.214183807373047
298.000000000000000 62.000000000000000 28.311252593994141
299.000000000000000 62.000000000000000 28.047340393066406
300.000000000000000 62.000000000000000 27.814411163330078
301.000000000000000 62.000000000000000 27.564785003662109
302.000000000000000 62.000000000000000 27.488876342773438
303.000000000000000 62.000000000000000 27.285688400268555
304.000000000000000 62.000000000000000 12.068498611450195
305.000000000000000 62.000000000000000 11.641777992248535
306.000000000000000 62.000000000000000 11.216903686523438
307.000000000000000 62.000000000000000 10.836059570312500
308.000000000000000 62.000000000000000 10.518231391906738
309.000000000000000 62.000000000000000 10.212393760681152
310.000000000000000 62.000000000000000 9.908977508544922
311.000000000000000 62.000000000000000 9.523800849914551
312.000000000000000 62.000000000000000 9.018232345581055
313.000000000000000 62.000000000000000 8.458430290222168
314.000000000000000 62.000000000000000 8.022410392761230
315.000000000000000 62.000000000000000 7.679875850677490
316.000000000000000 62.000000000000000 7.177244186401367
317.000000000000000 62.000000000000000 6.719391345977783
318.000000000000000 62.000000000000000 6.448159694671631
319.000000000000000 62.000000000000000 6.090942859649658
320.000000000000000 62.000000000000000 5.656120300292969
321.000000000000000 62.000000000000000 5.109344959259033
322.000000000000000 62.000000000000000 4.366828441619873
323.000000000000000 62.000000000000000 3.654180765151978
324.000000000000000 62.000000000000000 2.965388298034668
325.000000000000000 62.000000000000000 2.269065141677856
326.000000000000000 62.000000000000000 1.608837842941284
327.000000000000000 62.000000000000000 0.708864808082581
333.000000000000000 62.000000000000000 38.627315521240234
334.000000000000000 62.000000000000000 37.028579711914062
211.000000000000000 63.000000000000000 57.055160522460938
212.000000000000000 63.000000000000000 57.658821105957031
213.000000000000000 63.000000000000000 58.230236053466797
214.000000000000000 63.000000000000000 58.878814697265625
215.000000000000000 63.000000000000000 59.652740478515625
216.000000000000000 63.000000000000000 60.385471343994141
217.000000000000000 63.000000000000000 60.318584442138672
218.000000000000000 63.000000000000000 60.293720245361328
219.000000000000000 63.000000000000000 60.434417724609375
220.000000000000000 63.000000000000000 60.583065032958984
221.000000000000000 63.000000000000000 60.590801239013672
222.000000000000000 63.000000000000000 60.586090087890625
223.000000000000000 63.000000000000000 60.565376281738281
224.000000000000000 63.000000000000000 60.526870727539062
225.000000000000000 63.000000000000000 60.548072814941406
226.000000000000000 63.000000000000000 60.577190399169922
227.000000000000000 63.000000000000000 60.562397003173828
228.000000000000000 63.000000000000000 60.570423126220703
229.000000000000000 63.000000000000000 60.528366088867188
230.000000000000000 63.000000000000000 60.500652313232422
231.000000000000000 63.000000000000000 60.525157928466797
232.000000000000000 63.000000000000000 60.567142486572266
233.000000000000000 63.000000000000000 60.564769744873047
234.000000000000000 63.000000000000000 60.612903594970703
235.000000000000000 63.000000000000000 60.606372833251953
236.000000000000000 63.000000000000000 60.583160400390625
237.000000000000000 63.000000000000000 60.575935363769531
238.000000000000000 63.000000000000000 60.571548461914062
239.000000000000000 63.000000000000000 60.530941009521484
240.000000000000000 63.000000000000000 60.508464813232422
241.000000000000000 63.000000000000000 60.492706298828125
242.000000000000000 63.000000000000000 60.431400299072266
243.000000000000000 63.000000000000000 60.398883819580078
244.000000000000000 63.000000000000000 60.362957000732422
245.000000000000000 63.000000000000000 60.297904968261719
246.000000000000000 63.000000000000000 60.238224029541016
247.000000000000000 63.000000000000000 60.172416687011719
248.000000000000000 63.000000000000000 60.125045776367188
249.000000000000000 63.000000000000000 60.079212188720703
250.000000000000000 63.000000000000000 59.985225677490234
251.000000000000000 63.000000000000000 59.923904418945312
252.000000000000000 63.000000000000000 59.850017547607422
253.000000000000000 63.000000000000000 59.776412963867188
254.000000000000000 63.000000000000000 59.659111022949219
255.000000000000000 63.000000000000000 59.557235717773438
256.000000000000000 63.000000000000000 59.444194793701172
257.000000000000000 63.000000000000000 59.378337860107422
258.000000000000000 63.000000000000000 59.301475524902344
259.000000000000000 63.000000000000000 59.199588775634766
260.000000000000000 63.000000000000000 59.119316101074219
261.000000000000000 63.000000000000000 58.984653472900391
262.000000000000000 63.000000000000000 58.877624511718750
263.000000000000000 63.000000000000000 58.760040283203125
264.000000000000000 63.000000000000000 58.679252624511719
265.000000000000000 63.000000000000000 58.543464660644531
266.000000000000000 63.000000000000000 58.400703430175781
267.000000000000000 63.000000000000000 58.264385223388672
268.000000000000000 63.000000000000000 58.134658813476562
269.000000000000000 63.000000000000000 57.985645294189453
270.000000000000000 63.000000000000000 57.854679107666016
271.000000000000000 63.000000000000000 57.715366363525391
272.000000000000000 63.000000000000000 57.511432647705078
273.000000000000000 63.000000000000000 57.326972961425781
274.000000000000000 63.000000000000000 57.152431488037109
275.000000000000000 63.000000000000000 56.960090637207031
276.000000000000000 63.000000000000000 56.788509368896484
277.000000000000000 63.000000000000000 56.621036529541016
278.000000000000000 63.000000000000000 56.448368072509766
279.000000000000000 63.000000000000000 56.264015197753906
280.000000000000000 63.000000000000000 56.047443389892578
281.000000000000000 63.000000000000000 55.863540649414062
282.000000000000000 63.000000000000000 55.648254394531250
283.000000000000000 63.000000000000000 55.428848266601562
284.000000000000000 63.000000000000000 55.198379516601562
285.000000000000000 63.000000000000000 54.964267730712891
286.000000000000000 63.000000000000000 54.755462646484375
287.000000000000000 63.000000000000000 54.490131378173828
288.000000000000000 63.000000000000000 54.232498168945312
289.000000000000000 63.000000000000000 53.874015808105469
290.000000000000000 63.000000000000000 53.514743804931641
291.000000000000000 63.000000000000000 53.264919281005859
292.000000000000000 63.000000000000000 53.091854095458984
293.000000000000000 63.000000000000000 53.299186706542969
294.000000000000000 63.000000000000000 54.334609985351562
295.000000000000000 63.000000000000000 41.638805389404297
296.000000000000000 63.000000000000000 41.775524139404297
297.000000000000000 63.000000000000000 41.981967926025391
298.000000000000000 63.000000000000000 28.054584503173828
299.000000000000000 63.000000000000000 27.773857116699219
300.000000000000000 63.000000000000000 27.565864562988281
301.000000000000000 63.000000000000000 27.375783920288086
302.000000000000000 63.000000000000000 27.312625885009766
303.000000000000000 63.000000000000000 27.075567245483398
304.000000000000000 63.000000000000000 11.763426780700684
305.000000000000000 63.000000000000000 11.259493827819824
306.000000000000000 63.000000000000000 10.787059783935547
307.000000000000000 63.000000000000000 10.540267944335938
308.000000000000000 63.000000000000000 10.256470680236816
309.000000000000000 63.000000000000000 9.953856468200684
310.000000000000000 63.000000000000000 9.595896720886230
311.000000000000000 63.000000000000000 9.232522964477539
312.000000000000000 63.000000000000000 8.732178688049316
313.000000000000000 63.000000000000000 8.140875816345215
314.000000000000000 63.000000000000000 7.646296977996826
315.000000000000000 63.000000000000000 7.297141075134277
316.000000000000000 63.000000000000000 6.835227489471436
317.000000000000000 63.000000000000000 6.455667018890381
318.000000000000000 63.000000000000000 6.196035385131836
319.000000000000000 63.000000000000000 5.768882274627686
320.000000000000000 63.000000000000000 5.235788345336914
321.000000000000000 63.000000000000000 4.692507743835449
322.000000000000000 63.000000000000000 3.892785310745239
323.000000000000000 63.000000000000000 3.190162658691406
324.000000000000000 63.000000000000000 2.582062005996704
325.000000000000000 63.000000000000000 1.915110230445862
326.000000000000000 63.000000000000000 1.166833519935608
327.000000000000000 63.000000000000000 0.110445536673069
212.000000000000000 64.000000000000000 56.331817626953125
213.000000000000000 64.000000000000000 57.192420959472656
214.000000000000000 64.000000000000000 57.682167053222656
215.000000000000000 64.000000000000000 58.212677001953125
216.000000000000000 64.000000000000000 58.852100372314453
217.000000000000000 64.000000000000000 59.683147430419922
218.000000000000000 64.000000000000000 59.668838500976562
219.000000000000000 64.000000000000000 60.085205078125000
220.000000000000000 64.000000000000000 60.332954406738281
221.000000000000000 64.000000000000000 60.361789703369141
222.000000000000000 64.000000000000000 60.347324371337891
223.000000000000000 64.000000000000000 60.340263366699219
224.000000000000000 64.000000000000000 60.347686767578125
225.000000000000000 64.000000000000000 60.381797790527344
226.000000000000000 64.000000000000000 60.415813446044922
227.000000000000000 64.000000000000000 60.406684875488281
228.000000000000000 64.000000000000000 60.404075622558594
229.000000000000000 64.000000000000000 60.357368469238281
230.000000000000000 64.000000000000000 60.339374542236328
231.000000000000000 64.000000000000000 60.373535156250000
232.000000000000000 64.000000000000000 60.389228820800781
233.000000000000000 64.000000000000000 60.392818450927734
234.000000000000000 64.000000000000000 60.446323394775391
235.000000000000000 64.000000000000000 60.414710998535156
236.000000000000000 64.000000000000000 60.432239532470703
237.000000000000000 64.000000000000000 60.415061950683594
238.000000000000000 64.000000000000000 60.401103973388672
239.000000000000000 64.000000000000000 60.372077941894531
240.000000000000000 64.000000000000000 60.354854583740234
241.000000000000000 64.000000000000000 60.321525573730469
242.000000000000000 64.000000000000000 60.280822753906250
243.000000000000000 64.000000000000000 60.260391235351562
244.000000000000000 64.000000000000000 60.243537902832031
245.000000000000000 64.000000000000000 60.201061248779297
246.000000000000000 64.000000000000000 60.159072875976562
247.000000000000000 64.000000000000000 60.123783111572266
248.000000000000000 64.000000000000000 60.065952301025391
249.000000000000000 64.000000000000000 60.016807556152344
250.000000000000000 64.000000000000000 59.947101593017578
251.000000000000000 64.000000000000000 59.865524291992188
252.000000000000000 64.000000000000000 59.793823242187500
253.000000000000000 64.000000000000000 59.728477478027344
254.000000000000000 64.000000000000000 59.612651824951172
255.000000000000000 64.000000000000000 59.523193359375000
256.000000000000000 64.000000000000000 59.430591583251953
257.000000000000000 64.000000000000000 59.349697113037109
258.000000000000000 64.000000000000000 59.268814086914062
259.000000000000000 64.000000000000000 59.179504394531250
260.000000000000000 64.000000000000000 59.113777160644531
261.000000000000000 64.000000000000000 58.993583679199219
262.000000000000000 64.000000000000000 58.870483398437500
263.000000000000000 64.000000000000000 58.765071868896484
264.000000000000000 64.000000000000000 58.672843933105469
265.000000000000000 64.000000000000000 58.557678222656250
266.000000000000000 64.000000000000000 58.421958923339844
267.000000000000000 64.000000000000000 58.276809692382812
268.000000000000000 64.000000000000000 58.139049530029297
269.000000000000000 64.000000000000000 57.993221282958984
270.000000000000000 64.000000000000000 57.873680114746094
271.000000000000000 64.000000000000000 57.721309661865234
272.000000000000000 64.000000000000000 57.531223297119141
273.000000000000000 64.000000000000000 57.341522216796875
274.000000000000000 64.000000000000000 57.180053710937500
275.000000000000000 64.000000000000000 56.994537353515625
276.000000000000000 64.000000000000000 56.793140411376953
277.000000000000000 64.000000000000000 56.622821807861328
278.000000000000000 64.000000000000000 56.440422058105469
279.000000000000000 64.000000000000000 56.264041900634766
280.000000000000000 64.000000000000000 56.055454254150391
281.000000000000000 64.000000000000000 55.842437744140625
282.000000000000000 64.000000000000000 55.630683898925781
283.000000000000000 64.000000000000000 55.427215576171875
284.000000000000000 64.000000000000000 55.187244415283203
285.000000000000000 64.000000000000000 54.958850860595703
286.000000000000000 64.000000000000000 54.742252349853516
287.000000000000000 64.000000000000000 54.499988555908203
288.000000000000000 64.000000000000000 54.228118896484375
289.000000000000000 64.000000000000000 53.817756652832031
290.000000000000000 64.000000000000000 53.462734222412109
291.000000000000000 64.000000000000000 53.339324951171875
292.000000000000000 64.000000000000000 53.518630981445312
293.000000000000000 64.000000000000000 54.016296386718750
294.000000000000000 64.000000000000000 54.527301788330078
295.000000000000000 64.000000000000000 41.552017211914062
296.000000000000000 64.000000000000000 41.651245117187500
297.000000000000000 64.000000000000000 27.846916198730469
298.000000000000000 64.000000000000000 27.783567428588867
299.000000000000000 64.000000000000000 27.513813018798828
300.000000000000000 64.000000000000000 27.290992736816406
301.000000000000000 64.000000000000000 27.104761123657227
302.000000000000000 64.000000000000000 27.015558242797852
303.000000000000000 64.000000000000000 26.767803192138672
304.000000000000000 64.000000000000000 11.362457275390625
305.000000000000000 64.000000000000000 10.789249420166016
306.000000000000000 64.000000000000000 10.413213729858398
307.000000000000000 64.000000000000000 10.287408828735352
308.000000000000000 64.000000000000000 9.970532417297363
309.000000000000000 64.000000000000000 9.606521606445312
310.000000000000000 64.000000000000000 9.255859375000000
311.000000000000000 64.000000000000000 8.903840065002441
312.000000000000000 64.000000000000000 8.360357284545898
313.000000000000000 64.000000000000000 7.803127765655518
314.000000000000000 64.000000000000000 7.310163497924805
315.000000000000000 64.000000000000000 6.972137451171875
316.000000000000000 64.000000000000000 6.501201629638672
317.000000000000000 64.000000000000000 6.139684677124023
318.000000000000000 64.000000000000000 5.806128978729248
319.000000000000000 64.000000000000000 5.337732791900635
320.000000000000000 64.000000000000000 4.837166309356689
321.000000000000000 64.000000000000000 4.172988891601562
322.000000000000000 64.000000000000000 3.426621437072754
323.000000000000000 64.000000000000000 2.845112085342407
324.000000000000000 64.000000000000000 2.185843944549561
325.000000000000000 64.000000000000000 1.429798364639282
326.000000000000000 64.000000000000000 0.633167862892151
331.000000000000000 64.000000000000000 39.547981262207031
332.000000000000000 64.000000000000000 38.213871002197266
213.000000000000000 65.000000000000000 55.912631988525391
214.000000000000000 65.000000000000000 56.739608764648438
215.000000000000000 65.000000000000000 57.605403900146484
216.000000000000000 65.000000000000000 57.925838470458984
217.000000000000000 65.000000000000000 58.723575592041016
218.000000000000000 65.000000000000000 59.121837615966797
219.000000000000000 65.000000000000000 59.888240814208984
220.000000000000000 65.000000000000000 60.050193786621094
221.000000000000000 65.000000000000000 60.043239593505859
222.000000000000000 65.000000000000000 60.021343231201172
223.000000000000000 65.000000000000000 60.095069885253906
224.000000000000000 65.000000000000000 60.146694183349609
225.000000000000000 65.000000000000000 60.171638488769531
226.000000000000000 65.000000000000000 60.226821899414062
227.000000000000000 65.000000000000000 60.195411682128906
228.000000000000000 65.000000000000000 60.178173065185547
229.000000000000000 65.000000000000000 60.151607513427734
230.000000000000000 65.000000000000000 60.165882110595703
231.000000000000000 65.000000000000000 60.202747344970703
232.000000000000000 65.000000000000000 60.208465576171875
233.000000000000000 65.000000000000000 60.195495605468750
234.000000000000000 65.000000000000000 60.246654510498047
235.000000000000000 65.000000000000000 60.276870727539062
236.000000000000000 65.000000000000000 60.284271240234375
237.000000000000000 65.000000000000000 60.263698577880859
238.000000000000000 65.000000000000000 60.245132446289062
239.000000000000000 65.000000000000000 60.232227325439453
240.000000000000000 65.000000000000000 60.230567932128906
241.000000000000000 65.000000000000000 60.204471588134766
242.000000000000000 65.000000000000000 60.145931243896484
243.000000000000000 65.000000000000000 60.153129577636719
244.000000000000000 65.000000000000000 60.143379211425781
245.000000000000000 65.000000000000000 60.120315551757812
246.000000000000000 65.000000000000000 60.100601196289062
247.000000000000000 65.000000000000000 60.048973083496094
248.000000000000000 65.000000000000000 60.011142730712891
249.000000000000000 65.000000000000000 59.981662750244141
250.000000000000000 65.000000000000000 59.900039672851562
251.000000000000000 65.000000000000000 59.822006225585938
252.000000000000000 65.000000000000000 59.740852355957031
253.000000000000000 65.000000000000000 59.688686370849609
254.000000000000000 65.000000000000000 59.574028015136719
255.000000000000000 65.000000000000000 59.484813690185547
256.000000000000000 65.000000000000000 59.403656005859375
257.000000000000000 65.000000000000000 59.330337524414062
258.000000000000000 65.000000000000000 59.240840911865234
259.000000000000000 65.000000000000000 59.152256011962891
260.000000000000000 65.000000000000000 59.083522796630859
261.000000000000000 65.000000000000000 58.971488952636719
262.000000000000000 65.000000000000000 58.858131408691406
263.000000000000000 65.000000000000000 58.740409851074219
264.000000000000000 65.000000000000000 58.669574737548828
265.000000000000000 65.000000000000000 58.539764404296875
266.000000000000000 65.000000000000000 58.421321868896484
267.000000000000000 65.000000000000000 58.285701751708984
268.000000000000000 65.000000000000000 58.145816802978516
269.000000000000000 65.000000000000000 58.003166198730469
270.000000000000000 65.000000000000000 57.864154815673828
271.000000000000000 65.000000000000000 57.726627349853516
272.000000000000000 65.000000000000000 57.520305633544922
273.000000000000000 65.000000000000000 57.345561981201172
274.000000000000000 65.000000000000000 57.174072265625000
275.000000000000000 65.000000000000000 56.975852966308594
276.000000000000000 65.000000000000000 56.803524017333984
277.000000000000000 65.000000000000000 56.628120422363281
278.000000000000000 65.000000000000000 56.434036254882812
279.000000000000000 65.000000000000000 56.248161315917969
280.000000000000000 65.000000000000000 56.031372070312500
281.000000000000000 65.000000000000000 55.850814819335938
282.000000000000000 65.000000000000000 55.622955322265625
283.000000000000000 65.000000000000000 55.378379821777344
284.000000000000000 65.000000000000000 55.155086517333984
285.000000000000000 65.000000000000000 54.923049926757812
286.000000000000000 65.000000000000000 54.697025299072266
287.000000000000000 65.000000000000000 54.454238891601562
288.000000000000000 65.000000000000000 54.189273834228516
289.000000000000000 65.000000000000000 53.765617370605469
290.000000000000000 65.000000000000000 53.476306915283203
291.000000000000000 65.000000000000000 53.394649505615234
293.000000000000000 65.000000000000000 54.349216461181641
294.000000000000000 65.000000000000000 41.392177581787109
295.000000000000000 65.000000000000000 41.437709808349609
296.000000000000000 65.000000000000000 41.556331634521484
297.000000000000000 65.000000000000000 27.650163650512695
298.000000000000000 65.000000000000000 27.500421524047852
299.000000000000000 65.000000000000000 27.235195159912109
300.000000000000000 65.000000000000000 26.984796524047852
301.000000000000000 65.000000000000000 26.812183380126953
302.000000000000000 65.000000000000000 26.665052413940430
303.000000000000000 65.000000000000000 26.359001159667969
304.000000000000000 65.000000000000000 25.871204376220703
305.000000000000000 65.000000000000000 10.462059020996094
306.000000000000000 65.000000000000000 10.175262451171875
307.000000000000000 65.000000000000000 10.050648689270020
308.000000000000000 65.000000000000000 9.733633041381836
309.000000000000000 65.000000000000000 9.317439079284668
310.000000000000000 65.000000000000000 8.945565223693848
311.000000000000000 65.000000000000000 8.558093070983887
312.000000000000000 65.000000000000000 8.024592399597168
313.000000000000000 65.000000000000000 7.499491214752197
314.000000000000000 65.000000000000000 7.032546520233154
315.000000000000000 65.000000000000000 6.689248561859131
316.000000000000000 65.000000000000000 6.268710136413574
317.000000000000000 65.000000000000000 5.886193275451660
318.000000000000000 65.000000000000000 5.430934429168701
319.000000000000000 65.000000000000000 4.879748344421387
320.000000000000000 65.000000000000000 4.339430332183838
321.000000000000000 65.000000000000000 3.623751163482666
322.000000000000000 65.000000000000000 2.936367511749268
323.000000000000000 65.000000000000000 2.389223098754883
324.000000000000000 65.000000000000000 1.626509785652161
325.000000000000000 65.000000000000000 0.807610452175140
213.000000000000000 66.000000000000000 55.117259979248047
214.000000000000000 66.000000000000000 55.675804138183594
215.000000000000000 66.000000000000000 56.640739440917969
216.000000000000000 66.000000000000000 57.356369018554688
217.000000000000000 66.000000000000000 57.881114959716797
218.000000000000000 66.000000000000000 58.406509399414062
219.000000000000000 66.000000000000000 59.482601165771484
220.000000000000000 66.000000000000000 59.682041168212891
221.000000000000000 66.000000000000000 59.843242645263672
222.000000000000000 66.000000000000000 59.853820800781250
223.000000000000000 66.000000000000000 59.951763153076172
224.000000000000000 66.000000000000000 59.943412780761719
225.000000000000000 66.000000000000000 59.992832183837891
226.000000000000000 66.000000000000000 60.016258239746094
227.000000000000000 66.000000000000000 59.978828430175781
228.000000000000000 66.000000000000000 59.984237670898438
229.000000000000000 66.000000000000000 59.986312866210938
230.000000000000000 66.000000000000000 59.997890472412109
231.000000000000000 66.000000000000000 60.025440216064453
232.000000000000000 66.000000000000000 60.008430480957031
233.000000000000000 66.000000000000000 60.007781982421875
234.000000000000000 66.000000000000000 60.076679229736328
235.000000000000000 66.000000000000000 60.097297668457031
236.000000000000000 66.000000000000000 60.128601074218750
237.000000000000000 66.000000000000000 60.101482391357422
238.000000000000000 66.000000000000000 60.104370117187500
239.000000000000000 66.000000000000000 60.113243103027344
240.000000000000000 66.000000000000000 60.125717163085938
241.000000000000000 66.000000000000000 60.100902557373047
242.000000000000000 66.000000000000000 60.070026397705078
243.000000000000000 66.000000000000000 60.073726654052734
244.000000000000000 66.000000000000000 60.067577362060547
245.000000000000000 66.000000000000000 60.053092956542969
246.000000000000000 66.000000000000000 60.049583435058594
247.000000000000000 66.000000000000000 60.011768341064453
248.000000000000000 66.000000000000000 59.959606170654297
249.000000000000000 66.000000000000000 59.914588928222656
250.000000000000000 66.000000000000000 59.843727111816406
251.000000000000000 66.000000000000000 59.764225006103516
252.000000000000000 66.000000000000000 59.692089080810547
253.000000000000000 66.000000000000000 59.638813018798828
254.000000000000000 66.000000000000000 59.522377014160156
255.000000000000000 66.000000000000000 59.432014465332031
256.000000000000000 66.000000000000000 59.356063842773438
257.000000000000000 66.000000000000000 59.275459289550781
258.000000000000000 66.000000000000000 59.206573486328125
259.000000000000000 66.000000000000000 59.122985839843750
260.000000000000000 66.000000000000000 59.057544708251953
261.000000000000000 66.000000000000000 58.939643859863281
262.000000000000000 66.000000000000000 58.837898254394531
263.000000000000000 66.000000000000000 58.733234405517578
264.000000000000000 66.000000000000000 58.622135162353516
265.000000000000000 66.000000000000000 58.508750915527344
266.000000000000000 66.000000000000000 58.386043548583984
267.000000000000000 66.000000000000000 58.263919830322266
268.000000000000000 66.000000000000000 58.116588592529297
269.000000000000000 66.000000000000000 57.972831726074219
270.000000000000000 66.000000000000000 57.843029022216797
271.000000000000000 66.000000000000000 57.699604034423828
272.000000000000000 66.000000000000000 57.520954132080078
273.000000000000000 66.000000000000000 57.318305969238281
274.000000000000000 66.000000000000000 57.137226104736328
275.000000000000000 66.000000000000000 56.980468750000000
276.000000000000000 66.000000000000000 56.796192169189453
277.000000000000000 66.000000000000000 56.617076873779297
278.000000000000000 66.000000000000000 56.429252624511719
279.000000000000000 66.000000000000000 56.253547668457031
280.000000000000000 66.000000000000000 56.049667358398438
281.000000000000000 66.000000000000000 55.853988647460938
282.000000000000000 66.000000000000000 55.630130767822266
283.000000000000000 66.000000000000000 55.391181945800781
284.000000000000000 66.000000000000000 55.134429931640625
285.000000000000000 66.000000000000000 54.896511077880859
286.000000000000000 66.000000000000000 54.646247863769531
287.000000000000000 66.000000000000000 54.378067016601562
288.000000000000000 66.000000000000000 54.092845916748047
289.000000000000000 66.000000000000000 53.622779846191406
290.000000000000000 66.000000000000000 53.297279357910156
291.000000000000000 66.000000000000000 53.104801177978516
293.000000000000000 66.000000000000000 41.079124450683594
294.000000000000000 66.000000000000000 41.182804107666016
295.000000000000000 66.000000000000000 41.332847595214844
296.000000000000000 66.000000000000000 41.398143768310547
297.000000000000000 66.000000000000000 27.377872467041016
298.000000000000000 66.000000000000000 27.180274963378906
299.000000000000000 66.000000000000000 26.946531295776367
300.000000000000000 66.000000000000000 26.681837081909180
301.000000000000000 66.000000000000000 26.475917816162109
302.000000000000000 66.000000000000000 26.287097930908203
303.000000000000000 66.000000000000000 25.977998733520508
304.000000000000000 66.000000000000000 25.585901260375977
305.000000000000000 66.000000000000000 25.339763641357422
306.000000000000000 66.000000000000000 10.060674667358398
307.000000000000000 66.000000000000000 9.805857658386230
308.000000000000000 66.000000000000000 9.384202957153320
309.000000000000000 66.000000000000000 8.991661071777344
310.000000000000000 66.000000000000000 8.638432502746582
311.000000000000000 66.000000000000000 8.214043617248535
312.000000000000000 66.000000000000000 7.688042640686035
313.000000000000000 66.000000000000000 7.207854747772217
314.000000000000000 66.000000000000000 21.935785293579102
315.000000000000000 66.000000000000000 6.397566795349121
316.000000000000000 66.000000000000000 5.967138290405273
317.000000000000000 66.000000000000000 5.488888740539551
