ply
format ascii 1.0
element vertex 825
property double x
property double y
property double z
end_header
182.000000000000000 46.000000000000000 58.222236633300781
183.000000000000000 46.000000000000000 58.029022216796875
184.000000000000000 46.000000000000000 57.791233062744141
185.000000000000000 46.000000000000000 57.610534667968750
186.000000000000000 46.000000000000000 57.430141448974609
187.000000000000000 46.000000000000000 57.198921203613281
188.000000000000000 46.000000000000000 56.983108520507812
189.000000000000000 46.000000000000000 56.814613342285156
190.000000000000000 46.000000000000000 56.591964721679688
191.000000000000000 46.000000000000000 56.354507446289062
192.000000000000000 46.000000000000000 56.097240447998047
193.000000000000000 46.000000000000000 55.886577606201172
194.000000000000000 46.000000000000000 55.528999328613281
195.000000000000000 46.000000000000000 55.169010162353516
196.000000000000000 46.000000000000000 54.782554626464844
197.000000000000000 46.000000000000000 54.442729949951172
198.000000000000000 46.000000000000000 54.147087097167969
199.000000000000000 46.000000000000000 53.843570709228516
200.000000000000000 46.000000000000000 53.395748138427734
201.000000000000000 46.000000000000000 52.829727172851562
202.000000000000000 46.000000000000000 52.167064666748047
203.000000000000000 46.000000000000000 51.370475769042969
204.000000000000000 46.000000000000000 50.448055267333984
205.000000000000000 46.000000000000000 49.383605957031250
310.000000000000000 46.000000000000000 43.936992645263672
311.000000000000000 46.000000000000000 45.102149963378906
312.000000000000000 46.000000000000000 45.952941894531250
313.000000000000000 46.000000000000000 46.155677795410156
314.000000000000000 46.000000000000000 46.423942565917969
315.000000000000000 46.000000000000000 46.779731750488281
316.000000000000000 46.000000000000000 47.020599365234375
317.000000000000000 46.000000000000000 47.244712829589844
318.000000000000000 46.000000000000000 47.505554199218750
319.000000000000000 46.000000000000000 47.719146728515625
320.000000000000000 46.000000000000000 48.001010894775391
321.000000000000000 46.000000000000000 48.199867248535156
322.000000000000000 46.000000000000000 48.412746429443359
323.000000000000000 46.000000000000000 48.805068969726562
324.000000000000000 46.000000000000000 49.069019317626953
325.000000000000000 46.000000000000000 49.128612518310547
326.000000000000000 46.000000000000000 49.242576599121094
327.000000000000000 46.000000000000000 49.428329467773438
328.000000000000000 46.000000000000000 49.493103027343750
329.000000000000000 46.000000000000000 49.576629638671875
330.000000000000000 46.000000000000000 49.620567321777344
331.000000000000000 46.000000000000000 49.699485778808594
332.000000000000000 46.000000000000000 49.757587432861328
333.000000000000000 46.000000000000000 49.842479705810547
334.000000000000000 46.000000000000000 49.899898529052734
335.000000000000000 46.000000000000000 49.949218750000000
336.000000000000000 46.000000000000000 49.975666046142578
337.000000000000000 46.000000000000000 49.995605468750000
338.000000000000000 46.000000000000000 49.959209442138672
339.000000000000000 46.000000000000000 49.953392028808594
340.000000000000000 46.000000000000000 49.933860778808594
341.000000000000000 46.000000000000000 49.906356811523438
342.000000000000000 46.000000000000000 49.842399597167969
343.000000000000000 46.000000000000000 49.808120727539062
344.000000000000000 46.000000000000000 49.770450592041016
345.000000000000000 46.000000000000000 49.695220947265625
346.000000000000000 46.000000000000000 49.583412170410156
347.000000000000000 46.000000000000000 49.677017211914062
348.000000000000000 46.000000000000000 49.872150421142578
349.000000000000000 46.000000000000000 50.048763275146484
350.000000000000000 46.000000000000000 50.054134368896484
351.000000000000000 46.000000000000000 50.199863433837891
352.000000000000000 46.000000000000000 50.345870971679688
353.000000000000000 46.000000000000000 50.447113037109375
354.000000000000000 46.000000000000000 50.589923858642578
355.000000000000000 46.000000000000000 50.824337005615234
356.000000000000000 46.000000000000000 51.010459899902344
357.000000000000000 46.000000000000000 51.071514129638672
358.000000000000000 46.000000000000000 51.161666870117188
359.000000000000000 46.000000000000000 51.240966796875000
360.000000000000000 46.000000000000000 51.296089172363281
361.000000000000000 46.000000000000000 51.415096282958984
362.000000000000000 46.000000000000000 51.507007598876953
363.000000000000000 46.000000000000000 51.562515258789062
364.000000000000000 46.000000000000000 38.374435424804688
365.000000000000000 46.000000000000000 38.420936584472656
366.000000000000000 46.000000000000000 38.510505676269531
367.000000000000000 46.000000000000000 38.611221313476562
368.000000000000000 46.000000000000000 38.705688476562500
369.000000000000000 46.000000000000000 38.767494201660156
370.000000000000000 46.000000000000000 38.825435638427734
371.000000000000000 46.000000000000000 38.835803985595703
372.000000000000000 46.000000000000000 38.867607116699219
373.000000000000000 46.000000000000000 38.910865783691406
374.000000000000000 46.000000000000000 38.950019836425781
375.000000000000000 46.000000000000000 39.003787994384766
376.000000000000000 46.000000000000000 39.032306671142578
377.000000000000000 46.000000000000000 39.047019958496094
378.000000000000000 46.000000000000000 39.110301971435547
379.000000000000000 46.000000000000000 39.163425445556641
380.000000000000000 46.000000000000000 25.136386871337891
381.000000000000000 46.000000000000000 25.099088668823242
382.000000000000000 46.000000000000000 25.107067108154297
383.000000000000000 46.000000000000000 76.612480163574219
384.000000000000000 46.000000000000000 76.611534118652344
385.000000000000000 46.000000000000000 76.566459655761719
386.000000000000000 46.000000000000000 76.521430969238281
387.000000000000000 46.000000000000000 76.442115783691406
388.000000000000000 46.000000000000000 76.390724182128906
389.000000000000000 46.000000000000000 76.374031066894531
390.000000000000000 46.000000000000000 76.340240478515625
391.000000000000000 46.000000000000000 76.323951721191406
392.000000000000000 46.000000000000000 76.268989562988281
393.000000000000000 46.000000000000000 76.244346618652344
394.000000000000000 46.000000000000000 76.167221069335938
395.000000000000000 46.000000000000000 76.074119567871094
396.000000000000000 46.000000000000000 75.948097229003906
397.000000000000000 46.000000000000000 75.839477539062500
398.000000000000000 46.000000000000000 75.746704101562500
399.000000000000000 46.000000000000000 75.637886047363281
400.000000000000000 46.000000000000000 75.514419555664062
401.000000000000000 46.000000000000000 75.394317626953125
402.000000000000000 46.000000000000000 75.258102416992188
403.000000000000000 46.000000000000000 75.152755737304688
404.000000000000000 46.000000000000000 75.054199218750000
405.000000000000000 46.000000000000000 74.915130615234375
406.000000000000000 46.000000000000000 74.720405578613281
407.000000000000000 46.000000000000000 74.539352416992188
408.000000000000000 46.000000000000000 74.420516967773438
409.000000000000000 46.000000000000000 74.260536193847656
410.000000000000000 46.000000000000000 74.092514038085938
411.000000000000000 46.000000000000000 73.948143005371094
412.000000000000000 46.000000000000000 73.752769470214844
413.000000000000000 46.000000000000000 73.539703369140625
414.000000000000000 46.000000000000000 73.340461730957031
415.000000000000000 46.000000000000000 73.099456787109375
416.000000000000000 46.000000000000000 72.823394775390625
417.000000000000000 46.000000000000000 72.583869934082031
418.000000000000000 46.000000000000000 72.477584838867188
419.000000000000000 46.000000000000000 72.305679321289062
420.000000000000000 46.000000000000000 71.943733215332031
421.000000000000000 46.000000000000000 71.756118774414062
422.000000000000000 46.000000000000000 71.579093933105469
423.000000000000000 46.000000000000000 71.395095825195312
424.000000000000000 46.000000000000000 71.252304077148438
425.000000000000000 46.000000000000000 71.140762329101562
426.000000000000000 46.000000000000000 71.047691345214844
427.000000000000000 46.000000000000000 71.000526428222656
428.000000000000000 46.000000000000000 70.973800659179688
429.000000000000000 46.000000000000000 70.902099609375000
430.000000000000000 46.000000000000000 70.857398986816406
431.000000000000000 46.000000000000000 70.789245605468750
432.000000000000000 46.000000000000000 70.702796936035156
433.000000000000000 46.000000000000000 70.623336791992188
434.000000000000000 46.000000000000000 70.510108947753906
435.000000000000000 46.000000000000000 70.354621887207031
436.000000000000000 46.000000000000000 70.181518554687500
437.000000000000000 46.000000000000000 69.999107360839844
438.000000000000000 46.000000000000000 69.862922668457031
439.000000000000000 46.000000000000000 69.621902465820312
440.000000000000000 46.000000000000000 69.314033508300781
441.000000000000000 46.000000000000000 68.979660034179688
442.000000000000000 46.000000000000000 68.444992065429688
443.000000000000000 46.000000000000000 67.860519409179688
444.000000000000000 46.000000000000000 67.263603210449219
445.000000000000000 46.000000000000000 66.681587219238281
117.000000000000000 47.000000000000000 55.013652801513672
118.000000000000000 47.000000000000000 55.402812957763672
119.000000000000000 47.000000000000000 55.722656250000000
120.000000000000000 47.000000000000000 56.048995971679688
121.000000000000000 47.000000000000000 56.326862335205078
122.000000000000000 47.000000000000000 56.588748931884766
123.000000000000000 47.000000000000000 56.894134521484375
124.000000000000000 47.000000000000000 57.189346313476562
125.000000000000000 47.000000000000000 57.490196228027344
126.000000000000000 47.000000000000000 57.831768035888672
127.000000000000000 47.000000000000000 58.020702362060547
128.000000000000000 47.000000000000000 58.284042358398438
129.000000000000000 47.000000000000000 58.522216796875000
130.000000000000000 47.000000000000000 58.684532165527344
131.000000000000000 47.000000000000000 58.892078399658203
132.000000000000000 47.000000000000000 59.054676055908203
133.000000000000000 47.000000000000000 59.245128631591797
134.000000000000000 47.000000000000000 59.414501190185547
135.000000000000000 47.000000000000000 59.545475006103516
136.000000000000000 47.000000000000000 59.686084747314453
137.000000000000000 47.000000000000000 59.768268585205078
138.000000000000000 47.000000000000000 59.974266052246094
139.000000000000000 47.000000000000000 60.069465637207031
140.000000000000000 47.000000000000000 60.175018310546875
141.000000000000000 47.000000000000000 60.188362121582031
142.000000000000000 47.000000000000000 60.273250579833984
143.000000000000000 47.000000000000000 60.392814636230469
144.000000000000000 47.000000000000000 60.427837371826172
145.000000000000000 47.000000000000000 60.491214752197266
146.000000000000000 47.000000000000000 60.577388763427734
147.000000000000000 47.000000000000000 60.636047363281250
148.000000000000000 47.000000000000000 60.665340423583984
149.000000000000000 47.000000000000000 60.668365478515625
150.000000000000000 47.000000000000000 60.676483154296875
151.000000000000000 47.000000000000000 60.768440246582031
152.000000000000000 47.000000000000000 60.781635284423828
153.000000000000000 47.000000000000000 60.726985931396484
154.000000000000000 47.000000000000000 60.691745758056641
155.000000000000000 47.000000000000000 60.732963562011719
156.000000000000000 47.000000000000000 60.697780609130859
157.000000000000000 47.000000000000000 60.718261718750000
158.000000000000000 47.000000000000000 60.731636047363281
159.000000000000000 47.000000000000000 60.767753601074219
160.000000000000000 47.000000000000000 60.728031158447266
161.000000000000000 47.000000000000000 60.680702209472656
162.000000000000000 47.000000000000000 60.649398803710938
163.000000000000000 47.000000000000000 60.653633117675781
164.000000000000000 47.000000000000000 60.624221801757812
165.000000000000000 47.000000000000000 60.517787933349609
166.000000000000000 47.000000000000000 60.462848663330078
167.000000000000000 47.000000000000000 60.397014617919922
168.000000000000000 47.000000000000000 60.255470275878906
169.000000000000000 47.000000000000000 60.113811492919922
170.000000000000000 47.000000000000000 59.960746765136719
171.000000000000000 47.000000000000000 59.800338745117188
172.000000000000000 47.000000000000000 59.634906768798828
173.000000000000000 47.000000000000000 59.531166076660156
174.000000000000000 47.000000000000000 59.458110809326172
175.000000000000000 47.000000000000000 59.334461212158203
176.000000000000000 47.000000000000000 59.239101409912109
177.000000000000000 47.000000000000000 59.133892059326172
178.000000000000000 47.000000000000000 59.001693725585938
179.000000000000000 47.000000000000000 58.878974914550781
180.000000000000000 47.000000000000000 58.722988128662109
181.000000000000000 47.000000000000000 58.538200378417969
182.000000000000000 47.000000000000000 58.342788696289062
183.000000000000000 47.000000000000000 58.156108856201172
184.000000000000000 47.000000000000000 57.944946289062500
185.000000000000000 47.000000000000000 57.729671478271484
186.000000000000000 47.000000000000000 57.515445709228516
187.000000000000000 47.000000000000000 57.299697875976562
188.000000000000000 47.000000000000000 57.075683593750000
189.000000000000000 47.000000000000000 56.869457244873047
190.000000000000000 47.000000000000000 56.648654937744141
191.000000000000000 47.000000000000000 56.377304077148438
192.000000000000000 47.000000000000000 56.093860626220703
193.000000000000000 47.000000000000000 55.845138549804688
194.000000000000000 47.000000000000000 55.437911987304688
195.000000000000000 47.000000000000000 55.069602966308594
196.000000000000000 47.000000000000000 54.668041229248047
197.000000000000000 47.000000000000000 54.344699859619141
198.000000000000000 47.000000000000000 54.080474853515625
199.000000000000000 47.000000000000000 53.719631195068359
200.000000000000000 47.000000000000000 53.221385955810547
201.000000000000000 47.000000000000000 52.568248748779297
202.000000000000000 47.000000000000000 51.837230682373047
203.000000000000000 47.000000000000000 51.123233795166016
204.000000000000000 47.000000000000000 50.387901306152344
205.000000000000000 47.000000000000000 49.626274108886719
309.000000000000000 47.000000000000000 44.415386199951172
310.000000000000000 47.000000000000000 44.616012573242188
311.000000000000000 47.000000000000000 45.319950103759766
312.000000000000000 47.000000000000000 46.033187866210938
313.000000000000000 47.000000000000000 46.253162384033203
314.000000000000000 47.000000000000000 46.546962738037109
315.000000000000000 47.000000000000000 46.852348327636719
316.000000000000000 47.000000000000000 47.100589752197266
317.000000000000000 47.000000000000000 47.374881744384766
318.000000000000000 47.000000000000000 47.687984466552734
319.000000000000000 47.000000000000000 47.903793334960938
320.000000000000000 47.000000000000000 48.142318725585938
321.000000000000000 47.000000000000000 48.347534179687500
322.000000000000000 47.000000000000000 48.583343505859375
323.000000000000000 47.000000000000000 48.904285430908203
324.000000000000000 47.000000000000000 49.136703491210938
325.000000000000000 47.000000000000000 49.156352996826172
326.000000000000000 47.000000000000000 49.278060913085938
327.000000000000000 47.000000000000000 49.498107910156250
328.000000000000000 47.000000000000000 49.587474822998047
329.000000000000000 47.000000000000000 49.649715423583984
330.000000000000000 47.000000000000000 49.694362640380859
331.000000000000000 47.000000000000000 49.759212493896484
332.000000000000000 47.000000000000000 49.824028015136719
333.000000000000000 47.000000000000000 49.908729553222656
334.000000000000000 47.000000000000000 49.966384887695312
335.000000000000000 47.000000000000000 50.004810333251953
336.000000000000000 47.000000000000000 50.026367187500000
337.000000000000000 47.000000000000000 50.055000305175781
338.000000000000000 47.000000000000000 50.023754119873047
339.000000000000000 47.000000000000000 50.021667480468750
340.000000000000000 47.000000000000000 50.015357971191406
341.000000000000000 47.000000000000000 49.968498229980469
342.000000000000000 47.000000000000000 49.903217315673828
343.000000000000000 47.000000000000000 49.836441040039062
344.000000000000000 47.000000000000000 49.774707794189453
345.000000000000000 47.000000000000000 49.676414489746094
346.000000000000000 47.000000000000000 49.545459747314453
347.000000000000000 47.000000000000000 49.628192901611328
348.000000000000000 47.000000000000000 49.854042053222656
349.000000000000000 47.000000000000000 50.102901458740234
350.000000000000000 47.000000000000000 50.119247436523438
351.000000000000000 47.000000000000000 50.206867218017578
352.000000000000000 47.000000000000000 50.346321105957031
353.000000000000000 47.000000000000000 50.428550720214844
354.000000000000000 47.000000000000000 50.604106903076172
355.000000000000000 47.000000000000000 50.833637237548828
356.000000000000000 47.000000000000000 51.021991729736328
357.000000000000000 47.000000000000000 51.101543426513672
358.000000000000000 47.000000000000000 51.187583923339844
359.000000000000000 47.000000000000000 51.287944793701172
360.000000000000000 47.000000000000000 51.365074157714844
361.000000000000000 47.000000000000000 51.456897735595703
362.000000000000000 47.000000000000000 51.515670776367188
363.000000000000000 47.000000000000000 51.583713531494141
364.000000000000000 47.000000000000000 51.668869018554688
365.000000000000000 47.000000000000000 38.451869964599609
366.000000000000000 47.000000000000000 38.537868499755859
367.000000000000000 47.000000000000000 38.630622863769531
368.000000000000000 47.000000000000000 38.726875305175781
369.000000000000000 47.000000000000000 38.777690887451172
370.000000000000000 47.000000000000000 38.835536956787109
371.000000000000000 47.000000000000000 38.881641387939453
372.000000000000000 47.000000000000000 38.917663574218750
373.000000000000000 47.000000000000000 38.934776306152344
374.000000000000000 47.000000000000000 38.969314575195312
375.000000000000000 47.000000000000000 39.046451568603516
376.000000000000000 47.000000000000000 39.081298828125000
377.000000000000000 47.000000000000000 39.098686218261719
378.000000000000000 47.000000000000000 39.154762268066406
379.000000000000000 47.000000000000000 25.147796630859375
380.000000000000000 47.000000000000000 76.706275939941406
381.000000000000000 47.000000000000000 25.135303497314453
382.000000000000000 47.000000000000000 76.659080505371094
383.000000000000000 47.000000000000000 76.630638122558594
384.000000000000000 47.000000000000000 76.641746520996094
385.000000000000000 47.000000000000000 76.586090087890625
386.000000000000000 47.000000000000000 76.544906616210938
387.000000000000000 47.000000000000000 76.477951049804688
388.000000000000000 47.000000000000000 76.408195495605469
389.000000000000000 47.000000000000000 76.395507812500000
390.000000000000000 47.000000000000000 76.377967834472656
391.000000000000000 47.000000000000000 76.354331970214844
392.000000000000000 47.000000000000000 76.292060852050781
393.000000000000000 47.000000000000000 76.259109497070312
394.000000000000000 47.000000000000000 76.202270507812500
395.000000000000000 47.000000000000000 76.120330810546875
396.000000000000000 47.000000000000000 75.995117187500000
397.000000000000000 47.000000000000000 75.872772216796875
398.000000000000000 47.000000000000000 75.778968811035156
399.000000000000000 47.000000000000000 75.669921875000000
400.000000000000000 47.000000000000000 75.534996032714844
401.000000000000000 47.000000000000000 75.414009094238281
402.000000000000000 47.000000000000000 75.286880493164062
403.000000000000000 47.000000000000000 75.177375793457031
404.000000000000000 47.000000000000000 75.093650817871094
405.000000000000000 47.000000000000000 74.966514587402344
406.000000000000000 47.000000000000000 74.800514221191406
407.000000000000000 47.000000000000000 74.614891052246094
408.000000000000000 47.000000000000000 74.472251892089844
409.000000000000000 47.000000000000000 74.288818359375000
410.000000000000000 47.000000000000000 74.096893310546875
411.000000000000000 47.000000000000000 73.941734313964844
412.000000000000000 47.000000000000000 73.771697998046875
413.000000000000000 47.000000000000000 73.555221557617188
414.000000000000000 47.000000000000000 73.353141784667969
415.000000000000000 47.000000000000000 73.119415283203125
416.000000000000000 47.000000000000000 72.849975585937500
417.000000000000000 47.000000000000000 72.614601135253906
418.000000000000000 47.000000000000000 72.508537292480469
419.000000000000000 47.000000000000000 72.370429992675781
420.000000000000000 47.000000000000000 72.012260437011719
421.000000000000000 47.000000000000000 71.807510375976562
422.000000000000000 47.000000000000000 71.672225952148438
423.000000000000000 47.000000000000000 71.468597412109375
424.000000000000000 47.000000000000000 71.221649169921875
425.000000000000000 47.000000000000000 71.074012756347656
426.000000000000000 47.000000000000000 70.966651916503906
427.000000000000000 47.000000000000000 70.936256408691406
428.000000000000000 47.000000000000000 70.927711486816406
429.000000000000000 47.000000000000000 70.874801635742188
430.000000000000000 47.000000000000000 70.850433349609375
431.000000000000000 47.000000000000000 70.782264709472656
432.000000000000000 47.000000000000000 70.689926147460938
433.000000000000000 47.000000000000000 70.616249084472656
434.000000000000000 47.000000000000000 70.501876831054688
435.000000000000000 47.000000000000000 70.347763061523438
436.000000000000000 47.000000000000000 70.185951232910156
437.000000000000000 47.000000000000000 69.968582153320312
438.000000000000000 47.000000000000000 69.818725585937500
439.000000000000000 47.000000000000000 69.573265075683594
440.000000000000000 47.000000000000000 69.268302917480469
441.000000000000000 47.000000000000000 68.938880920410156
442.000000000000000 47.000000000000000 68.446502685546875
443.000000000000000 47.000000000000000 67.745567321777344
444.000000000000000 47.000000000000000 67.154243469238281
445.000000000000000 47.000000000000000 66.504631042480469
116.000000000000000 48.000000000000000 54.800827026367188
117.000000000000000 48.000000000000000 55.180351257324219
118.000000000000000 48.000000000000000 55.519657135009766
119.000000000000000 48.000000000000000 56.031799316406250
120.000000000000000 48.000000000000000 56.342800140380859
121.000000000000000 48.000000000000000 56.646045684814453
122.000000000000000 48.000000000000000 56.948505401611328
123.000000000000000 48.000000000000000 57.152702331542969
124.000000000000000 48.000000000000000 57.525531768798828
125.000000000000000 48.000000000000000 57.773097991943359
126.000000000000000 48.000000000000000 58.114295959472656
127.000000000000000 48.000000000000000 58.325828552246094
128.000000000000000 48.000000000000000 58.623497009277344
129.000000000000000 48.000000000000000 58.830810546875000
130.000000000000000 48.000000000000000 58.932342529296875
131.000000000000000 48.000000000000000 59.190444946289062
132.000000000000000 48.000000000000000 59.355537414550781
133.000000000000000 48.000000000000000 59.576599121093750
134.000000000000000 48.000000000000000 59.750251770019531
135.000000000000000 48.000000000000000 59.865886688232422
136.000000000000000 48.000000000000000 60.022914886474609
137.000000000000000 48.000000000000000 60.075935363769531
138.000000000000000 48.000000000000000 60.304595947265625
139.000000000000000 48.000000000000000 60.366214752197266
140.000000000000000 48.000000000000000 60.458190917968750
141.000000000000000 48.000000000000000 60.484462738037109
142.000000000000000 48.000000000000000 60.545883178710938
143.000000000000000 48.000000000000000 60.624828338623047
144.000000000000000 48.000000000000000 60.668788909912109
145.000000000000000 48.000000000000000 60.746120452880859
146.000000000000000 48.000000000000000 60.786045074462891
147.000000000000000 48.000000000000000 60.855125427246094
148.000000000000000 48.000000000000000 60.912052154541016
149.000000000000000 48.000000000000000 60.898239135742188
150.000000000000000 48.000000000000000 60.948738098144531
151.000000000000000 48.000000000000000 61.008831024169922
152.000000000000000 48.000000000000000 61.023971557617188
153.000000000000000 48.000000000000000 61.016578674316406
154.000000000000000 48.000000000000000 60.973602294921875
155.000000000000000 48.000000000000000 60.974681854248047
156.000000000000000 48.000000000000000 60.941425323486328
157.000000000000000 48.000000000000000 60.962699890136719
158.000000000000000 48.000000000000000 60.925346374511719
159.000000000000000 48.000000000000000 60.974029541015625
160.000000000000000 48.000000000000000 61.006435394287109
161.000000000000000 48.000000000000000 60.948822021484375
162.000000000000000 48.000000000000000 60.979038238525391
163.000000000000000 48.000000000000000 60.938179016113281
164.000000000000000 48.000000000000000 60.915103912353516
165.000000000000000 48.000000000000000 60.786098480224609
166.000000000000000 48.000000000000000 60.724586486816406
167.000000000000000 48.000000000000000 60.626739501953125
168.000000000000000 48.000000000000000 60.504135131835938
169.000000000000000 48.000000000000000 60.371097564697266
170.000000000000000 48.000000000000000 60.243400573730469
171.000000000000000 48.000000000000000 60.069213867187500
172.000000000000000 48.000000000000000 59.925777435302734
173.000000000000000 48.000000000000000 59.814594268798828
174.000000000000000 48.000000000000000 59.735260009765625
175.000000000000000 48.000000000000000 59.610774993896484
176.000000000000000 48.000000000000000 59.515209197998047
177.000000000000000 48.000000000000000 59.386539459228516
178.000000000000000 48.000000000000000 59.259170532226562
179.000000000000000 48.000000000000000 59.091819763183594
180.000000000000000 48.000000000000000 58.916500091552734
181.000000000000000 48.000000000000000 58.751014709472656
182.000000000000000 48.000000000000000 58.562873840332031
183.000000000000000 48.000000000000000 58.353515625000000
184.000000000000000 48.000000000000000 58.153728485107422
185.000000000000000 48.000000000000000 57.964382171630859
186.000000000000000 48.000000000000000 57.747634887695312
187.000000000000000 48.000000000000000 57.516681671142578
188.000000000000000 48.000000000000000 57.254913330078125
189.000000000000000 48.000000000000000 57.030200958251953
190.000000000000000 48.000000000000000 56.806449890136719
191.000000000000000 48.000000000000000 56.552055358886719
192.000000000000000 48.000000000000000 56.241085052490234
193.000000000000000 48.000000000000000 55.954856872558594
194.000000000000000 48.000000000000000 55.584541320800781
195.000000000000000 48.000000000000000 55.235820770263672
196.000000000000000 48.000000000000000 54.829925537109375
197.000000000000000 48.000000000000000 54.435092926025391
198.000000000000000 48.000000000000000 54.103210449218750
199.000000000000000 48.000000000000000 53.699123382568359
200.000000000000000 48.000000000000000 53.187187194824219
201.000000000000000 48.000000000000000 52.603809356689453
202.000000000000000 48.000000000000000 51.939456939697266
203.000000000000000 48.000000000000000 51.372219085693359
204.000000000000000 48.000000000000000 50.619266510009766
205.000000000000000 48.000000000000000 49.931644439697266
206.000000000000000 48.000000000000000 49.461181640625000
309.000000000000000 48.000000000000000 44.894657135009766
310.000000000000000 48.000000000000000 45.118206024169922
311.000000000000000 48.000000000000000 45.528175354003906
312.000000000000000 48.000000000000000 46.113967895507812
313.000000000000000 48.000000000000000 46.373062133789062
314.000000000000000 48.000000000000000 46.633430480957031
315.000000000000000 48.000000000000000 46.964405059814453
316.000000000000000 48.000000000000000 47.216194152832031
317.000000000000000 48.000000000000000 47.502807617187500
318.000000000000000 48.000000000000000 47.820762634277344
319.000000000000000 48.000000000000000 48.028812408447266
320.000000000000000 48.000000000000000 48.268009185791016
321.000000000000000 48.000000000000000 48.484222412109375
322.000000000000000 48.000000000000000 48.664760589599609
323.000000000000000 48.000000000000000 48.952655792236328
324.000000000000000 48.000000000000000 49.173152923583984
325.000000000000000 48.000000000000000 49.229679107666016
326.000000000000000 48.000000000000000 49.340667724609375
327.000000000000000 48.000000000000000 49.514095306396484
328.000000000000000 48.000000000000000 49.603588104248047
329.000000000000000 48.000000000000000 49.729343414306641
330.000000000000000 48.000000000000000 49.739990234375000
331.000000000000000 48.000000000000000 49.812023162841797
332.000000000000000 48.000000000000000 49.882110595703125
333.000000000000000 48.000000000000000 49.966430664062500
334.000000000000000 48.000000000000000 50.036720275878906
335.000000000000000 48.000000000000000 50.072505950927734
336.000000000000000 48.000000000000000 50.072372436523438
337.000000000000000 48.000000000000000 50.105731964111328
338.000000000000000 48.000000000000000 50.084445953369141
339.000000000000000 48.000000000000000 50.098117828369141
340.000000000000000 48.000000000000000 50.098175048828125
341.000000000000000 48.000000000000000 50.021480560302734
342.000000000000000 48.000000000000000 49.968132019042969
343.000000000000000 48.000000000000000 49.901699066162109
344.000000000000000 48.000000000000000 49.823089599609375
345.000000000000000 48.000000000000000 49.692817687988281
346.000000000000000 48.000000000000000 49.537055969238281
347.000000000000000 48.000000000000000 49.599250793457031
348.000000000000000 48.000000000000000 49.804569244384766
349.000000000000000 48.000000000000000 50.108730316162109
350.000000000000000 48.000000000000000 50.194091796875000
351.000000000000000 48.000000000000000 50.281978607177734
352.000000000000000 48.000000000000000 50.383834838867188
353.000000000000000 48.000000000000000 50.492576599121094
354.000000000000000 48.000000000000000 50.660182952880859
355.000000000000000 48.000000000000000 50.849262237548828
356.000000000000000 48.000000000000000 51.007251739501953
357.000000000000000 48.000000000000000 51.099140167236328
358.000000000000000 48.000000000000000 51.233810424804688
359.000000000000000 48.000000000000000 51.321689605712891
360.000000000000000 48.000000000000000 51.408123016357422
361.000000000000000 48.000000000000000 51.493595123291016
362.000000000000000 48.000000000000000 51.540164947509766
363.000000000000000 48.000000000000000 51.595718383789062
364.000000000000000 48.000000000000000 51.712482452392578
365.000000000000000 48.000000000000000 51.739868164062500
366.000000000000000 48.000000000000000 38.533382415771484
367.000000000000000 48.000000000000000 38.633689880371094
368.000000000000000 48.000000000000000 38.694873809814453
369.000000000000000 48.000000000000000 38.747783660888672
370.000000000000000 48.000000000000000 38.865077972412109
371.000000000000000 48.000000000000000 38.904926300048828
372.000000000000000 48.000000000000000 38.932445526123047
373.000000000000000 48.000000000000000 38.979019165039062
374.000000000000000 48.000000000000000 39.009868621826172
375.000000000000000 48.000000000000000 39.070590972900391
376.000000000000000 48.000000000000000 39.105381011962891
377.000000000000000 48.000000000000000 39.114479064941406
378.000000000000000 48.000000000000000 39.179393768310547
379.000000000000000 48.000000000000000 76.701629638671875
380.000000000000000 48.000000000000000 76.722389221191406
381.000000000000000 48.000000000000000 76.680877685546875
382.000000000000000 48.000000000000000 76.702323913574219
383.000000000000000 48.000000000000000 76.651664733886719
384.000000000000000 48.000000000000000 76.654853820800781
385.000000000000000 48.000000000000000 76.625526428222656
386.000000000000000 48.000000000000000 76.578697204589844
387.000000000000000 48.000000000000000 76.491844177246094
388.000000000000000 48.000000000000000 76.442771911621094
389.000000000000000 48.000000000000000 76.417457580566406
390.000000000000000 48.000000000000000 76.396827697753906
391.000000000000000 48.000000000000000 76.380523681640625
392.000000000000000 48.000000000000000 76.309234619140625
393.000000000000000 48.000000000000000 76.265411376953125
394.000000000000000 48.000000000000000 76.227241516113281
395.000000000000000 48.000000000000000 76.157440185546875
396.000000000000000 48.000000000000000 76.045669555664062
397.000000000000000 48.000000000000000 75.919555664062500
398.000000000000000 48.000000000000000 75.798530578613281
399.000000000000000 48.000000000000000 75.691749572753906
400.000000000000000 48.000000000000000 75.554885864257812
401.000000000000000 48.000000000000000 75.437957763671875
402.000000000000000 48.000000000000000 75.320701599121094
403.000000000000000 48.000000000000000 75.228820800781250
404.000000000000000 48.000000000000000 75.123832702636719
405.000000000000000 48.000000000000000 74.999359130859375
406.000000000000000 48.000000000000000 74.834175109863281
407.000000000000000 48.000000000000000 74.637001037597656
408.000000000000000 48.000000000000000 74.501770019531250
409.000000000000000 48.000000000000000 74.299926757812500
410.000000000000000 48.000000000000000 74.075576782226562
411.000000000000000 48.000000000000000 73.950553894042969
412.000000000000000 48.000000000000000 73.790603637695312
413.000000000000000 48.000000000000000 73.566833496093750
414.000000000000000 48.000000000000000 73.362464904785156
415.000000000000000 48.000000000000000 73.124694824218750
416.000000000000000 48.000000000000000 72.864395141601562
417.000000000000000 48.000000000000000 72.613014221191406
418.000000000000000 48.000000000000000 72.460220336914062
419.000000000000000 48.000000000000000 72.394050598144531
420.000000000000000 48.000000000000000 72.059883117675781
421.000000000000000 48.000000000000000 71.866867065429688
422.000000000000000 48.000000000000000 71.711486816406250
423.000000000000000 48.000000000000000 71.479232788085938
424.000000000000000 48.000000000000000 71.166740417480469
425.000000000000000 48.000000000000000 70.986351013183594
426.000000000000000 48.000000000000000 70.900718688964844
427.000000000000000 48.000000000000000 70.917228698730469
428.000000000000000 48.000000000000000 70.920982360839844
429.000000000000000 48.000000000000000 70.864212036132812
430.000000000000000 48.000000000000000 70.816429138183594
431.000000000000000 48.000000000000000 70.764999389648438
432.000000000000000 48.000000000000000 70.673530578613281
433.000000000000000 48.000000000000000 70.577087402343750
434.000000000000000 48.000000000000000 70.456695556640625
435.000000000000000 48.000000000000000 70.298652648925781
436.000000000000000 48.000000000000000 70.141426086425781
437.000000000000000 48.000000000000000 69.947174072265625
438.000000000000000 48.000000000000000 69.785934448242188
439.000000000000000 48.000000000000000 69.572608947753906
440.000000000000000 48.000000000000000 69.258338928222656
441.000000000000000 48.000000000000000 68.892715454101562
442.000000000000000 48.000000000000000 68.381507873535156
443.000000000000000 48.000000000000000 67.752471923828125
444.000000000000000 48.000000000000000 67.074928283691406
445.000000000000000 48.000000000000000 12.389847755432129
115.000000000000000 49.000000000000000 54.868000030517578
116.000000000000000 49.000000000000000 55.303707122802734
117.000000000000000 49.000000000000000 55.528617858886719
118.000000000000000 49.000000000000000 55.987396240234375
119.000000000000000 49.000000000000000 56.420757293701172
120.000000000000000 49.000000000000000 56.718273162841797
121.000000000000000 49.000000000000000 57.000202178955078
122.000000000000000 49.000000000000000 57.288257598876953
123.000000000000000 49.000000000000000 57.562397003173828
124.000000000000000 49.000000000000000 57.897911071777344
125.000000000000000 49.000000000000000 58.194141387939453
126.000000000000000 49.000000000000000 58.495891571044922
127.000000000000000 49.000000000000000 58.712100982666016
128.000000000000000 49.000000000000000 59.026874542236328
129.000000000000000 49.000000000000000 59.190917968750000
130.000000000000000 49.000000000000000 59.320289611816406
131.000000000000000 49.000000000000000 59.601860046386719
132.000000000000000 49.000000000000000 59.762844085693359
133.000000000000000 49.000000000000000 59.923522949218750
134.000000000000000 49.000000000000000 60.059974670410156
135.000000000000000 49.000000000000000 60.204711914062500
136.000000000000000 49.000000000000000 60.368999481201172
137.000000000000000 49.000000000000000 60.448703765869141
138.000000000000000 49.000000000000000 60.636962890625000
139.000000000000000 49.000000000000000 60.697910308837891
140.000000000000000 49.000000000000000 60.793945312500000
141.000000000000000 49.000000000000000 60.796901702880859
142.000000000000000 49.000000000000000 60.861469268798828
143.000000000000000 49.000000000000000 60.900875091552734
144.000000000000000 49.000000000000000 60.943077087402344
145.000000000000000 49.000000000000000 60.989158630371094
146.000000000000000 49.000000000000000 61.036846160888672
147.000000000000000 49.000000000000000 61.090572357177734
148.000000000000000 49.000000000000000 61.151271820068359
149.000000000000000 49.000000000000000 61.181213378906250
150.000000000000000 49.000000000000000 61.202220916748047
151.000000000000000 49.000000000000000 61.260074615478516
152.000000000000000 49.000000000000000 61.268775939941406
153.000000000000000 49.000000000000000 61.262397766113281
154.000000000000000 49.000000000000000 61.239616394042969
155.000000000000000 49.000000000000000 61.233673095703125
156.000000000000000 49.000000000000000 61.200706481933594
157.000000000000000 49.000000000000000 61.226394653320312
158.000000000000000 49.000000000000000 61.194675445556641
159.000000000000000 49.000000000000000 61.223876953125000
160.000000000000000 49.000000000000000 61.242908477783203
161.000000000000000 49.000000000000000 61.245941162109375
162.000000000000000 49.000000000000000 61.270820617675781
163.000000000000000 49.000000000000000 61.264961242675781
164.000000000000000 49.000000000000000 61.216869354248047
165.000000000000000 49.000000000000000 61.089141845703125
166.000000000000000 49.000000000000000 60.986515045166016
167.000000000000000 49.000000000000000 60.888973236083984
168.000000000000000 49.000000000000000 60.743537902832031
169.000000000000000 49.000000000000000 60.633758544921875
170.000000000000000 49.000000000000000 60.492240905761719
171.000000000000000 49.000000000000000 60.341495513916016
172.000000000000000 49.000000000000000 60.245712280273438
173.000000000000000 49.000000000000000 60.157218933105469
174.000000000000000 49.000000000000000 60.032440185546875
175.000000000000000 49.000000000000000 59.875686645507812
176.000000000000000 49.000000000000000 59.756786346435547
177.000000000000000 49.000000000000000 59.643356323242188
178.000000000000000 49.000000000000000 59.509944915771484
179.000000000000000 49.000000000000000 59.383285522460938
180.000000000000000 49.000000000000000 59.191894531250000
181.000000000000000 49.000000000000000 59.012710571289062
182.000000000000000 49.000000000000000 58.854751586914062
183.000000000000000 49.000000000000000 58.636169433593750
184.000000000000000 49.000000000000000 58.438072204589844
185.000000000000000 49.000000000000000 58.244441986083984
186.000000000000000 49.000000000000000 58.034576416015625
187.000000000000000 49.000000000000000 57.785373687744141
188.000000000000000 49.000000000000000 57.519428253173828
189.000000000000000 49.000000000000000 57.313987731933594
190.000000000000000 49.000000000000000 57.086433410644531
191.000000000000000 49.000000000000000 56.802612304687500
192.000000000000000 49.000000000000000 56.508232116699219
193.000000000000000 49.000000000000000 56.238815307617188
194.000000000000000 49.000000000000000 55.865043640136719
195.000000000000000 49.000000000000000 55.560050964355469
196.000000000000000 49.000000000000000 55.143604278564453
197.000000000000000 49.000000000000000 54.695560455322266
198.000000000000000 49.000000000000000 54.360492706298828
199.000000000000000 49.000000000000000 53.972118377685547
200.000000000000000 49.000000000000000 53.460937500000000
201.000000000000000 49.000000000000000 52.866298675537109
202.000000000000000 49.000000000000000 52.327827453613281
203.000000000000000 49.000000000000000 51.856716156005859
204.000000000000000 49.000000000000000 51.200119018554688
205.000000000000000 49.000000000000000 50.546977996826172
206.000000000000000 49.000000000000000 49.933483123779297
309.000000000000000 49.000000000000000 44.987857818603516
310.000000000000000 49.000000000000000 45.371353149414062
311.000000000000000 49.000000000000000 45.702884674072266
312.000000000000000 49.000000000000000 46.198539733886719
313.000000000000000 49.000000000000000 46.434345245361328
314.000000000000000 49.000000000000000 46.737350463867188
315.000000000000000 49.000000000000000 47.061767578125000
316.000000000000000 49.000000000000000 47.329570770263672
317.000000000000000 49.000000000000000 47.574024200439453
318.000000000000000 49.000000000000000 47.880275726318359
319.000000000000000 49.000000000000000 48.116420745849609
320.000000000000000 49.000000000000000 48.366584777832031
321.000000000000000 49.000000000000000 48.564064025878906
322.000000000000000 49.000000000000000 48.737762451171875
323.000000000000000 49.000000000000000 48.964065551757812
324.000000000000000 49.000000000000000 49.164939880371094
325.000000000000000 49.000000000000000 49.255680084228516
326.000000000000000 49.000000000000000 49.347461700439453
327.000000000000000 49.000000000000000 49.494606018066406
328.000000000000000 49.000000000000000 49.606838226318359
329.000000000000000 49.000000000000000 49.763820648193359
330.000000000000000 49.000000000000000 49.787349700927734
331.000000000000000 49.000000000000000 49.856216430664062
332.000000000000000 49.000000000000000 49.929241180419922
333.000000000000000 49.000000000000000 50.032051086425781
334.000000000000000 49.000000000000000 50.090213775634766
335.000000000000000 49.000000000000000 50.121482849121094
336.000000000000000 49.000000000000000 50.128463745117188
337.000000000000000 49.000000000000000 50.175609588623047
338.000000000000000 49.000000000000000 50.169067382812500
339.000000000000000 49.000000000000000 50.175945281982422
340.000000000000000 49.000000000000000 50.173938751220703
341.000000000000000 49.000000000000000 50.065711975097656
342.000000000000000 49.000000000000000 50.019123077392578
343.000000000000000 49.000000000000000 49.953247070312500
344.000000000000000 49.000000000000000 49.854351043701172
345.000000000000000 49.000000000000000 49.736415863037109
346.000000000000000 49.000000000000000 49.606414794921875
347.000000000000000 49.000000000000000 49.629722595214844
348.000000000000000 49.000000000000000 49.753173828125000
349.000000000000000 49.000000000000000 50.045166015625000
350.000000000000000 49.000000000000000 50.173564910888672
351.000000000000000 49.000000000000000 50.268543243408203
352.000000000000000 49.000000000000000 50.402286529541016
353.000000000000000 49.000000000000000 50.536556243896484
354.000000000000000 49.000000000000000 50.690666198730469
355.000000000000000 49.000000000000000 50.848876953125000
356.000000000000000 49.000000000000000 51.009681701660156
357.000000000000000 49.000000000000000 51.114593505859375
358.000000000000000 49.000000000000000 51.227622985839844
359.000000000000000 49.000000000000000 51.354736328125000
360.000000000000000 49.000000000000000 51.432048797607422
361.000000000000000 49.000000000000000 51.504394531250000
362.000000000000000 49.000000000000000 51.565902709960938
363.000000000000000 49.000000000000000 51.646236419677734
364.000000000000000 49.000000000000000 51.726425170898438
365.000000000000000 49.000000000000000 51.757926940917969
366.000000000000000 49.000000000000000 38.559486389160156
367.000000000000000 49.000000000000000 38.646678924560547
368.000000000000000 49.000000000000000 38.711021423339844
369.000000000000000 49.000000000000000 38.774124145507812
370.000000000000000 49.000000000000000 38.886188507080078
371.000000000000000 49.000000000000000 38.962135314941406
372.000000000000000 49.000000000000000 39.009460449218750
373.000000000000000 49.000000000000000 39.023426055908203
374.000000000000000 49.000000000000000 39.049064636230469
375.000000000000000 49.000000000000000 39.106269836425781
376.000000000000000 49.000000000000000 39.137901306152344
377.000000000000000 49.000000000000000 39.170005798339844
378.000000000000000 49.000000000000000 39.235561370849609
379.000000000000000 49.000000000000000 76.731101989746094
380.000000000000000 49.000000000000000 76.758300781250000
381.000000000000000 49.000000000000000 76.725280761718750
382.000000000000000 49.000000000000000 76.718322753906250
383.000000000000000 49.000000000000000 76.682304382324219
384.000000000000000 49.000000000000000 76.687522888183594
385.000000000000000 49.000000000000000 76.646438598632812
386.000000000000000 49.000000000000000 76.616271972656250
387.000000000000000 49.000000000000000 76.532432556152344
388.000000000000000 49.000000000000000 76.457717895507812
389.000000000000000 49.000000000000000 76.438392639160156
390.000000000000000 49.000000000000000 76.421508789062500
391.000000000000000 49.000000000000000 76.395072937011719
392.000000000000000 49.000000000000000 76.335792541503906
393.000000000000000 49.000000000000000 76.294929504394531
394.000000000000000 49.000000000000000 76.250030517578125
395.000000000000000 49.000000000000000 76.181045532226562
396.000000000000000 49.000000000000000 76.052604675292969
397.000000000000000 49.000000000000000 75.917968750000000
398.000000000000000 49.000000000000000 75.820442199707031
399.000000000000000 49.000000000000000 75.715797424316406
400.000000000000000 49.000000000000000 75.560211181640625
401.000000000000000 49.000000000000000 75.426170349121094
402.000000000000000 49.000000000000000 75.329933166503906
403.000000000000000 49.000000000000000 75.244262695312500
404.000000000000000 49.000000000000000 75.146705627441406
405.000000000000000 49.000000000000000 75.014396667480469
406.000000000000000 49.000000000000000 74.844177246093750
407.000000000000000 49.000000000000000 74.626945495605469
408.000000000000000 49.000000000000000 74.477561950683594
409.000000000000000 49.000000000000000 74.278450012207031
410.000000000000000 49.000000000000000 74.084632873535156
411.000000000000000 49.000000000000000 73.957344055175781
412.000000000000000 49.000000000000000 73.802017211914062
413.000000000000000 49.000000000000000 73.562011718750000
414.000000000000000 49.000000000000000 73.369148254394531
415.000000000000000 49.000000000000000 73.143821716308594
416.000000000000000 49.000000000000000 72.908081054687500
417.000000000000000 49.000000000000000 72.629524230957031
418.000000000000000 49.000000000000000 72.454429626464844
419.000000000000000 49.000000000000000 72.406539916992188
420.000000000000000 49.000000000000000 72.191482543945312
421.000000000000000 49.000000000000000 71.926628112792969
422.000000000000000 49.000000000000000 71.724662780761719
423.000000000000000 49.000000000000000 71.437599182128906
424.000000000000000 49.000000000000000 71.109069824218750
425.000000000000000 49.000000000000000 70.954582214355469
426.000000000000000 49.000000000000000 70.896789550781250
427.000000000000000 49.000000000000000 70.909385681152344
